ply
format ascii 1.0
comment Created by Open3D
element vertex 1921
property double x
property double y
property double z
end_header
4.53385 4.30552 0.200322
4.52625 4.2062 0.200322
4.51866 4.10687 0.200322
4.51106 4.00754 0.200321
4.50347 3.90822 0.200321
4.49587 3.80889 0.200321
4.48828 3.70956 0.200321
4.48068 3.61024 0.200321
4.47309 3.51091 0.200321
4.46549 3.41158 0.200321
4.4579 3.31226 0.200321
4.4503 3.21293 0.20032
4.44271 3.1136 0.20032
4.43511 3.01427 0.20032
4.42752 2.91495 0.20032
4.41992 2.81562 0.20032
4.41233 2.71629 0.20032
4.40473 2.61697 0.20032
4.39714 2.51764 0.20032
4.38954 2.41831 0.20032
4.38195 2.31899 0.200319
4.38194 2.31899 0.299085
4.38193 2.31899 0.39785
4.38193 2.31899 0.496616
4.38192 2.31899 0.595381
4.38191 2.31899 0.694147
4.3819 2.31899 0.792912
4.38189 2.31899 0.891677
4.37435 2.21966 0.200319
4.37435 2.21966 0.299085
4.37434 2.21966 0.39785
4.37433 2.21966 0.496616
4.37432 2.21966 0.595381
4.37432 2.21966 0.694147
4.37431 2.21966 0.792912
4.3743 2.21966 0.891677
4.36676 2.12033 0.200319
4.36675 2.12033 0.299085
4.36674 2.12033 0.39785
4.36674 2.12033 0.496616
4.36673 2.12033 0.595381
4.36672 2.12034 0.694146
4.36671 2.12034 0.792912
4.36671 2.12034 0.891677
4.35916 2.02101 0.200319
4.35916 2.02101 0.299085
4.35915 2.02101 0.39785
4.35914 2.02101 0.496615
4.35913 2.02101 0.595381
4.35913 2.02101 0.694146
4.35912 2.02101 0.792912
4.35911 2.02101 0.891677
4.35157 1.92168 0.200319
4.35156 1.92168 0.299084
4.35155 1.92168 0.39785
4.35155 1.92168 0.496615
4.35154 1.92168 0.595381
4.35153 1.92168 0.694146
4.35152 1.92168 0.792912
4.35152 1.92168 0.891677
4.34397 1.82235 0.200319
4.34397 1.82235 0.299084
4.34396 1.82235 0.39785
4.34395 1.82235 0.496615
4.34394 1.82235 0.595381
4.34394 1.82235 0.694146
4.34393 1.82235 0.792911
4.34392 1.82236 0.891677
4.33638 1.72302 0.200319
4.33637 1.72303 0.299084
4.33636 1.72303 0.39785
4.33636 1.72303 0.496615
4.33635 1.72303 0.595381
4.33634 1.72303 0.694146
4.33633 1.72303 0.792911
4.33633 1.72303 0.891677
4.32878 1.6237 0.200319
4.32119 1.52437 0.200319
4.31359 1.42504 0.200318
4.306 1.32572 0.200318
4.2984 1.22639 0.200318
4.29081 1.12706 0.200318
4.28321 1.02774 0.200318
4.27562 0.928409 0.200318
4.26802 0.829083 0.200318
4.26043 0.729756 0.200318
4.25284 0.630429 0.200318
4.24524 0.531102 0.200317
4.23765 0.431775 0.200317
4.23005 0.332448 0.200317
4.22246 0.233122 0.200317
4.21486 0.133795 0.200317
4.20727 0.0344676 0.200317
4.19967 -0.0648595 0.200317
4.19208 -0.164187 0.200317
4.18448 -0.263514 0.200316
4.17689 -0.362841 0.200316
4.16929 -0.462167 0.200316
4.1617 -0.561494 0.200316
4.1541 -0.660821 0.200316
4.14651 -0.760148 0.200316
4.13891 -0.859475 0.200316
4.13132 -0.958802 0.200316
4.12372 -1.05813 0.200316
4.11613 -1.15746 0.200315
4.10853 -1.25678 0.200315
4.10094 -1.35611 0.200315
4.09334 -1.45544 0.200315
4.08575 -1.55476 0.200315
4.07815 -1.65409 0.200315
4.07056 -1.75342 0.200315
4.06296 -1.85274 0.200315
4.05537 -1.95207 0.200315
4.04777 -2.0514 0.200314
4.04018 -2.15072 0.200314
4.03258 -2.25005 0.200314
4.02499 -2.34938 0.200314
4.01739 -2.44871 0.200314
4.0098 -2.54803 0.200314
4.0022 -2.64736 0.200314
3.99461 -2.74669 0.200314
3.98701 -2.84601 0.200314
3.97942 -2.94534 0.200313
3.97182 -3.04467 0.200313
3.96423 -3.14399 0.200313
3.95663 -3.24332 0.200313
3.94904 -3.34265 0.200313
3.94144 -3.44197 0.200313
3.93385 -3.5413 0.200313
3.92625 -3.64063 0.200313
3.91866 -3.73995 0.200312
3.91106 -3.83928 0.200312
3.90347 -3.93861 0.200312
3.89587 -4.03794 0.200312
3.88828 -4.13726 0.200312
3.88068 -4.23659 0.200312
3.87309 -4.33592 0.200312
3.86549 -4.43524 0.200312
3.8579 -4.53457 0.200312
3.8503 -4.6339 0.200311
3.84271 -4.73322 0.200311
3.83511 -4.83255 0.200311
3.82752 -4.93188 0.200311
3.81992 -5.0312 0.200311
3.81233 -5.13053 0.200311
3.81232 -5.13053 0.299076
3.81231 -5.13053 0.397842
3.81231 -5.13053 0.496607
3.8123 -5.13053 0.595373
3.81229 -5.13053 0.694138
3.81228 -5.13053 0.792903
3.81228 -5.13053 0.891669
3.81227 -5.13053 0.990434
3.81226 -5.13053 1.0892
3.81225 -5.13053 1.18797
3.81224 -5.13053 1.28673
3.81224 -5.13053 1.3855
3.81223 -5.13053 1.48426
3.81222 -5.13053 1.58303
3.81221 -5.13052 1.68179
3.81221 -5.13052 1.78056
3.8122 -5.13052 1.87932
3.81219 -5.13052 1.97809
3.81218 -5.13052 2.07685
3.81218 -5.13052 2.17562
3.81217 -5.13052 2.27438
3.81216 -5.13052 2.37315
3.81215 -5.13052 2.47192
3.81214 -5.13052 2.57068
3.81214 -5.13052 2.66945
3.80473 -5.22986 0.200311
3.80454 -5.22985 2.66945
3.79714 -5.32919 0.200311
3.79713 -5.32919 0.299076
3.79712 -5.32918 0.397842
3.79712 -5.32918 0.496607
3.79711 -5.32918 0.595372
3.7971 -5.32918 0.694138
3.79709 -5.32918 0.792903
3.79709 -5.32918 0.891669
3.79708 -5.32918 0.990434
3.79707 -5.32918 1.0892
3.79706 -5.32918 1.18796
3.79705 -5.32918 1.28673
3.79705 -5.32918 1.3855
3.79704 -5.32918 1.48426
3.79703 -5.32918 1.58303
3.79702 -5.32918 1.68179
3.79702 -5.32918 1.78056
3.79701 -5.32918 1.87932
3.797 -5.32918 1.97809
3.79699 -5.32918 2.07685
3.79699 -5.32918 2.17562
3.79698 -5.32918 2.27438
3.79697 -5.32918 2.37315
3.79696 -5.32918 2.47192
3.79695 -5.32917 2.57068
3.79695 -5.32917 2.66945
3.78954 -5.42851 0.200311
3.78195 -5.52784 0.20031
3.77435 -5.62717 0.20031
3.76676 -5.72649 0.20031
3.75917 -5.82582 0.20031
3.75157 -5.92515 0.20031
3.74398 -6.02447 0.20031
3.73638 -6.1238 0.20031
3.72879 -6.22313 0.20031
3.72119 -6.32245 0.20031
3.7136 -6.42178 0.200309
3.706 -6.52111 0.200309
3.69841 -6.62044 0.200309
3.69081 -6.71976 0.200309
3.68322 -6.81909 0.200309
3.67562 -6.91842 0.200309
3.66803 -7.01774 0.200309
3.66043 -7.11707 0.200309
3.65284 -7.2164 0.200308
3.64524 -7.31572 0.200308
3.63765 -7.41505 0.200308
3.63005 -7.51438 0.200308
3.62246 -7.6137 0.200308
3.61486 -7.71303 0.200308
3.60727 -7.81236 0.200308
3.59967 -7.91169 0.200308
3.59208 -8.01101 0.200308
3.58448 -8.11034 0.200307
3.57689 -8.20967 0.200307
3.56929 -8.30899 0.200307
3.5617 -8.40832 0.200307
3.5541 -8.50765 0.200307
3.54651 -8.60697 0.200307
3.53891 -8.7063 0.200307
3.53132 -8.80563 0.200307
3.52372 -8.90495 0.200307
3.51613 -9.00428 0.200306
3.50853 -9.10361 0.200306
3.50094 -9.20294 0.200306
3.49334 -9.30226 0.200306
4.96735 8.66831 0.200335
4.95976 8.56899 0.200334
4.95216 8.46966 0.200334
4.94457 8.37033 0.200334
4.93697 8.27101 0.200334
4.92938 8.17168 0.200334
4.92178 8.07235 0.200334
4.91419 7.97303 0.200334
4.90659 7.8737 0.200334
4.899 7.77437 0.200334
4.8914 7.67504 0.200333
4.88381 7.57572 0.200333
4.87621 7.47639 0.200333
4.86862 7.37706 0.200333
4.86102 7.27774 0.200333
4.85343 7.17841 0.200333
4.84583 7.07908 0.200333
4.83824 6.97976 0.200333
4.83064 6.88043 0.200332
4.82305 6.7811 0.200332
4.81545 6.68178 0.200332
4.80786 6.58245 0.200332
4.80026 6.48312 0.200332
4.79267 6.38379 0.200332
4.78507 6.28447 0.200332
4.77748 6.18514 0.200332
4.76988 6.08581 0.200332
4.76229 5.98649 0.200331
4.75469 5.88716 0.200331
4.7471 5.78783 0.200331
4.7395 5.68851 0.200331
4.73191 5.58918 0.200331
4.72431 5.48985 0.200331
4.71672 5.39053 0.200331
4.70912 5.2912 0.200331
4.70153 5.19187 0.200331
4.69393 5.09255 0.20033
4.68634 4.99322 0.20033
4.67874 4.89389 0.20033
4.67115 4.79456 0.20033
4.66355 4.69524 0.20033
4.66355 4.69524 0.299095
4.66354 4.69524 0.397861
4.66353 4.69524 0.496626
4.66352 4.69524 0.595392
4.66352 4.69524 0.694157
4.66351 4.69524 0.792923
4.6635 4.69524 0.891688
4.66349 4.69524 0.990453
4.66348 4.69524 1.08922
4.66348 4.69524 1.18798
4.66347 4.69524 1.28675
4.66346 4.69524 1.38552
4.66345 4.69524 1.48428
4.66345 4.69524 1.58305
4.66344 4.69524 1.68181
4.66343 4.69524 1.78058
4.66342 4.69525 1.87934
4.66342 4.69525 1.97811
4.66341 4.69525 2.07687
4.6634 4.69525 2.17564
4.66339 4.69525 2.2744
4.66338 4.69525 2.37317
4.66338 4.69525 2.47193
4.66337 4.69525 2.5707
4.66336 4.69525 2.66947
4.65596 4.59591 0.20033
4.65577 4.59592 2.66947
4.64836 4.49658 0.20033
4.64836 4.49658 0.299095
4.64835 4.49658 0.397861
4.64834 4.49659 0.496626
4.64833 4.49659 0.595391
4.64833 4.49659 0.694157
4.64832 4.49659 0.792922
4.64831 4.49659 0.891688
4.6483 4.49659 0.990453
4.64829 4.49659 1.08922
4.64829 4.49659 1.18798
4.64828 4.49659 1.28675
4.64827 4.49659 1.38551
4.64826 4.49659 1.48428
4.64826 4.49659 1.58305
4.64825 4.49659 1.68181
4.64824 4.49659 1.78058
4.64823 4.49659 1.87934
4.64823 4.49659 1.97811
4.64822 4.49659 2.07687
4.64821 4.49659 2.17564
4.6482 4.49659 2.2744
4.64819 4.49659 2.37317
4.64819 4.49659 2.47193
4.64818 4.4966 2.5707
4.64817 4.4966 2.66947
4.64077 4.39726 0.20033
4.63317 4.29793 0.20033
4.62558 4.1986 0.200329
4.61798 4.09928 0.200329
4.61039 3.99995 0.200329
4.60279 3.90062 0.200329
4.5952 3.8013 0.200329
4.5876 3.70197 0.200329
4.58001 3.60264 0.200329
4.57241 3.50331 0.200329
4.56482 3.40399 0.200328
4.55723 3.30466 0.200328
4.54963 3.20533 0.200328
4.54204 3.10601 0.200328
4.53444 3.00668 0.200328
4.52685 2.90735 0.200328
4.51925 2.80803 0.200328
4.51166 2.7087 0.200328
4.50406 2.60937 0.200328
4.49647 2.51005 0.200327
4.48887 2.41072 0.200327
4.48128 2.31139 0.200327
4.47368 2.21206 0.200327
4.46609 2.11274 0.200327
4.45849 2.01341 0.200327
4.4509 1.91408 0.200327
4.4433 1.81476 0.200327
4.43571 1.71543 0.200327
4.42811 1.6161 0.200326
4.42052 1.51678 0.200326
4.41292 1.41745 0.200326
4.40533 1.31812 0.200326
4.39773 1.2188 0.200326
4.39014 1.11947 0.200326
4.38254 1.02014 0.200326
4.37495 0.920814 0.200326
4.36735 0.821488 0.200326
4.35976 0.722161 0.200325
4.35216 0.622834 0.200325
4.34457 0.523507 0.200325
4.33697 0.42418 0.200325
4.32938 0.324853 0.200325
4.32178 0.225527 0.200325
4.31419 0.1262 0.200325
4.30659 0.0268727 0.200325
4.299 -0.0724544 0.200324
4.2914 -0.171781 0.200324
4.28381 -0.271109 0.200324
4.27621 -0.370436 0.200324
4.26862 -0.469762 0.200324
4.26102 -0.569089 0.200324
4.25343 -0.668416 0.200324
4.24583 -0.767743 0.200324
4.23824 -0.86707 0.200324
4.23064 -0.966397 0.200323
4.22305 -1.06572 0.200323
4.21545 -1.16505 0.200323
4.20786 -1.26438 0.200323
4.20026 -1.3637 0.200323
4.19267 -1.46303 0.200323
4.18507 -1.56236 0.200323
4.17748 -1.66169 0.200323
4.16988 -1.76101 0.200323
4.16229 -1.86034 0.200322
4.15469 -1.95967 0.200322
4.1471 -2.05899 0.200322
4.1395 -2.15832 0.200322
4.13191 -2.25765 0.200322
4.12431 -2.35697 0.200322
4.11672 -2.4563 0.200322
4.10912 -2.55563 0.200322
4.10153 -2.65495 0.200322
4.09393 -2.75428 0.200321
4.08634 -2.85361 0.200321
4.07874 -2.95293 0.200321
4.07115 -3.05226 0.200321
4.06356 -3.15159 0.200321
4.05596 -3.25092 0.200321
4.04837 -3.35024 0.200321
4.04077 -3.44957 0.200321
4.03318 -3.5489 0.20032
4.02558 -3.64822 0.20032
4.01799 -3.74755 0.20032
4.01039 -3.84688 0.20032
4.0028 -3.9462 0.20032
3.9952 -4.04553 0.20032
3.98761 -4.14486 0.20032
3.98001 -4.24419 0.20032
3.97242 -4.34351 0.20032
3.96482 -4.44284 0.200319
3.95723 -4.54216 0.200319
3.94963 -4.64149 0.200319
3.94204 -4.74082 0.200319
3.93444 -4.84015 0.200319
3.92685 -4.93947 0.200319
3.91925 -5.0388 0.200319
3.91166 -5.13813 0.200319
3.91165 -5.13813 0.299084
3.91164 -5.13813 0.39785
3.91163 -5.13813 0.496615
3.91163 -5.13812 0.59538
3.91162 -5.13812 0.694146
3.91161 -5.13812 0.792911
3.9116 -5.13812 0.891677
3.91159 -5.13812 0.990442
3.91159 -5.13812 1.08921
3.91158 -5.13812 1.18797
3.91157 -5.13812 1.28674
3.91156 -5.13812 1.3855
3.91156 -5.13812 1.48427
3.91155 -5.13812 1.58303
3.91154 -5.13812 1.6818
3.91153 -5.13812 1.78057
3.91153 -5.13812 1.87933
3.91152 -5.13812 1.9781
3.91151 -5.13812 2.07686
3.9115 -5.13812 2.17563
3.91149 -5.13812 2.27439
3.91149 -5.13812 2.37316
3.91148 -5.13812 2.47192
3.91147 -5.13812 2.57069
3.91146 -5.13811 2.66945
3.90406 -5.23745 0.200319
3.90387 -5.23744 2.66945
3.89647 -5.33678 0.200318
3.89646 -5.33678 0.299084
3.89645 -5.33678 0.397849
3.89644 -5.33678 0.496615
3.89644 -5.33678 0.59538
3.89643 -5.33678 0.694146
3.89642 -5.33678 0.792911
3.89641 -5.33678 0.891676
3.89641 -5.33678 0.990442
3.8964 -5.33678 1.08921
3.89639 -5.33678 1.18797
3.89638 -5.33678 1.28674
3.89637 -5.33678 1.3855
3.89637 -5.33677 1.48427
3.89636 -5.33677 1.58303
3.89635 -5.33677 1.6818
3.89634 -5.33677 1.78057
3.89634 -5.33677 1.87933
3.89633 -5.33677 1.9781
3.89632 -5.33677 2.07686
3.89631 -5.33677 2.17563
3.8963 -5.33677 2.27439
3.8963 -5.33677 2.37316
3.89629 -5.33677 2.47192
3.89628 -5.33677 2.57069
3.89627 -5.33677 2.66945
3.88887 -5.43611 0.200318
3.88128 -5.53543 0.200318
3.87368 -5.63476 0.200318
3.86609 -5.73409 0.200318
3.85849 -5.83341 0.200318
3.8509 -5.93274 0.200318
3.8433 -6.03207 0.200318
3.83571 -6.1314 0.200318
3.82811 -6.23072 0.200317
3.82052 -6.33005 0.200317
3.81292 -6.42938 0.200317
3.80533 -6.5287 0.200317
3.79773 -6.62803 0.200317
3.79014 -6.72736 0.200317
3.78254 -6.82668 0.200317
3.77495 -6.92601 0.200317
3.76735 -7.02534 0.200316
3.75976 -7.12466 0.200316
3.75216 -7.22399 0.200316
3.74457 -7.32332 0.200316
3.73697 -7.42265 0.200316
3.72938 -7.52197 0.200316
3.72178 -7.6213 0.200316
3.71419 -7.72063 0.200316
3.70659 -7.81995 0.200316
3.699 -7.91928 0.200315
3.6914 -8.01861 0.200315
3.68381 -8.11793 0.200315
3.67621 -8.21726 0.200315
3.66862 -8.31659 0.200315
3.66102 -8.41591 0.200315
3.65343 -8.51524 0.200315
3.64583 -8.61457 0.200315
3.63824 -8.7139 0.200315
3.63064 -8.81322 0.200314
3.62305 -8.91255 0.200314
3.61545 -9.01188 0.200314
3.60786 -9.1112 0.200314
3.60026 -9.21053 0.200314
3.59267 -9.30986 0.200314
5.05908 8.56139 0.200342
5.05149 8.46206 0.200342
5.04389 8.36274 0.200342
5.0363 8.26341 0.200342
5.0287 8.16408 0.200342
5.02111 8.06476 0.200342
5.01351 7.96543 0.200342
5.00592 7.8661 0.200341
4.99832 7.76678 0.200341
4.99073 7.66745 0.200341
4.98313 7.56812 0.200341
4.97554 7.4688 0.200341
4.96794 7.36947 0.200341
4.96035 7.27014 0.200341
4.95275 7.17082 0.200341
4.94516 7.07149 0.200341
4.93756 6.97216 0.20034
4.92997 6.87283 0.20034
4.92237 6.77351 0.20034
4.91478 6.67418 0.20034
4.90718 6.57485 0.20034
4.89959 6.47553 0.20034
4.89199 6.3762 0.20034
4.8844 6.27687 0.20034
4.8768 6.17755 0.200339
4.86921 6.07822 0.200339
4.86161 5.97889 0.200339
4.85402 5.87957 0.200339
4.84642 5.78024 0.200339
4.83883 5.68091 0.200339
4.83123 5.58158 0.200339
4.82364 5.48226 0.200339
4.81604 5.38293 0.200339
4.80845 5.2836 0.200338
4.80085 5.18428 0.200338
4.79326 5.08495 0.200338
4.78566 4.98562 0.200338
4.77807 4.8863 0.200338
4.77047 4.78697 0.200338
4.76288 4.68764 0.200338
4.76287 4.68764 0.299103
4.76286 4.68764 0.397869
4.76286 4.68764 0.496634
4.76285 4.68764 0.595399
4.76284 4.68764 0.694165
4.76283 4.68765 0.79293
4.76283 4.68765 0.891696
4.76282 4.68765 0.990461
4.76281 4.68765 1.08923
4.7628 4.68765 1.18799
4.76279 4.68765 1.28676
4.76279 4.68765 1.38552
4.76278 4.68765 1.48429
4.76277 4.68765 1.58305
4.76276 4.68765 1.68182
4.76276 4.68765 1.78058
4.76275 4.68765 1.87935
4.76274 4.68765 1.97812
4.76273 4.68765 2.07688
4.76273 4.68765 2.17565
4.76272 4.68765 2.27441
4.76271 4.68765 2.37318
4.7627 4.68765 2.47194
4.76269 4.68765 2.57071
4.76269 4.68765 2.66947
4.75528 4.58832 0.200338
4.75509 4.58833 2.66947
4.74769 4.48899 0.200338
4.74768 4.48899 0.299103
4.74767 4.48899 0.397868
4.74767 4.48899 0.496634
4.74766 4.48899 0.595399
4.74765 4.48899 0.694165
4.74764 4.48899 0.79293
4.74764 4.48899 0.891696
4.74763 4.48899 0.990461
4.74762 4.48899 1.08923
4.74761 4.48899 1.18799
4.7476 4.48899 1.28676
4.7476 4.48899 1.38552
4.74759 4.48899 1.48429
4.74758 4.489 1.58305
4.74757 4.489 1.68182
4.74757 4.489 1.78058
4.74756 4.489 1.87935
4.74755 4.489 1.97812
4.74754 4.489 2.07688
4.74754 4.489 2.17565
4.74753 4.489 2.27441
4.74752 4.489 2.37318
4.74751 4.489 2.47194
4.7475 4.489 2.57071
4.7475 4.489 2.66947
4.74009 4.38966 0.200337
4.7325 4.29033 0.200337
4.7249 4.19101 0.200337
4.71731 4.09168 0.200337
4.70971 3.99235 0.200337
4.70212 3.89303 0.200337
4.69452 3.7937 0.200337
4.68693 3.69437 0.200337
4.67934 3.59505 0.200337
4.67174 3.49572 0.200336
4.66415 3.39639 0.200336
4.65655 3.29707 0.200336
4.64896 3.19774 0.200336
4.64136 3.09841 0.200336
4.63377 2.99908 0.200336
4.62617 2.89976 0.200336
4.61858 2.80043 0.200336
4.61098 2.7011 0.200335
4.60339 2.60178 0.200335
4.59579 2.50245 0.200335
4.5882 2.40312 0.200335
4.5806 2.3038 0.200335
4.57301 2.20447 0.200335
4.56541 2.10514 0.200335
4.55782 2.00582 0.200335
4.55022 1.90649 0.200335
4.54263 1.80716 0.200334
4.53503 1.70783 0.200334
4.52744 1.60851 0.200334
4.51984 1.50918 0.200334
4.51225 1.40985 0.200334
4.50465 1.31053 0.200334
4.49706 1.2112 0.200334
4.48946 1.11187 0.200334
4.48187 1.01255 0.200334
4.47427 0.913219 0.200333
4.46668 0.813893 0.200333
4.45908 0.714566 0.200333
4.45149 0.615239 0.200333
4.44389 0.515912 0.200333
4.4363 0.416585 0.200333
4.4287 0.317258 0.200333
4.42111 0.217932 0.200333
4.41351 0.118605 0.200333
4.40592 0.0192779 0.200332
4.39832 -0.0800492 0.200332
4.39073 -0.179376 0.200332
4.38313 -0.278703 0.200332
4.37554 -0.37803 0.200332
4.36794 -0.477356 0.200332
4.36035 -0.576684 0.200332
4.35275 -0.676011 0.200332
4.34516 -0.775338 0.200331
4.33756 -0.874665 0.200331
4.32997 -0.973992 0.200331
4.32237 -1.07332 0.200331
4.31478 -1.17264 0.200331
4.30718 -1.27197 0.200331
4.29959 -1.3713 0.200331
4.29199 -1.47063 0.200331
4.2844 -1.56995 0.200331
4.2768 -1.66928 0.20033
4.26921 -1.76861 0.20033
4.26161 -1.86793 0.20033
4.25402 -1.96726 0.20033
4.24642 -2.06659 0.20033
4.23883 -2.16591 0.20033
4.23123 -2.26524 0.20033
4.22364 -2.36457 0.20033
4.21604 -2.46389 0.20033
4.20845 -2.56322 0.200329
4.20085 -2.66255 0.200329
4.19326 -2.76188 0.200329
4.18566 -2.8612 0.200329
4.17807 -2.96053 0.200329
4.17048 -3.05986 0.200329
4.16288 -3.15918 0.200329
4.15529 -3.25851 0.200329
4.14769 -3.35784 0.200329
4.1401 -3.45716 0.200328
4.1325 -3.55649 0.200328
4.12491 -3.65582 0.200328
4.11731 -3.75514 0.200328
4.10972 -3.85447 0.200328
4.10212 -3.9538 0.200328
4.09453 -4.05313 0.200328
4.08693 -4.15245 0.200328
4.07934 -4.25178 0.200327
4.07174 -4.35111 0.200327
4.06415 -4.45043 0.200327
4.05655 -4.54976 0.200327
4.04896 -4.64909 0.200327
4.04136 -4.74841 0.200327
4.03377 -4.84774 0.200327
4.02617 -4.94707 0.200327
4.01858 -5.04639 0.200327
4.01098 -5.14572 0.200326
4.01097 -5.14572 0.299092
4.01097 -5.14572 0.397857
4.01096 -5.14572 0.496623
4.01095 -5.14572 0.595388
4.01094 -5.14572 0.694154
4.01094 -5.14572 0.792919
4.01093 -5.14572 0.891684
4.01092 -5.14572 0.99045
4.01091 -5.14572 1.08922
4.0109 -5.14572 1.18798
4.0109 -5.14572 1.28675
4.01089 -5.14572 1.38551
4.01088 -5.14572 1.48428
4.01087 -5.14571 1.58304
4.01087 -5.14571 1.68181
4.01086 -5.14571 1.78057
4.01085 -5.14571 1.87934
4.01084 -5.14571 1.9781
4.01084 -5.14571 2.07687
4.01083 -5.14571 2.17564
4.01082 -5.14571 2.2744
4.01081 -5.14571 2.37317
4.0108 -5.14571 2.47193
4.0108 -5.14571 2.5707
4.01079 -5.14571 2.66946
4.00339 -5.24505 0.200326
4.00319 -5.24504 2.66946
3.99579 -5.34438 0.200326
3.99578 -5.34438 0.299092
3.99578 -5.34437 0.397857
3.99577 -5.34437 0.496623
3.99576 -5.34437 0.595388
3.99575 -5.34437 0.694153
3.99575 -5.34437 0.792919
3.99574 -5.34437 0.891684
3.99573 -5.34437 0.99045
3.99572 -5.34437 1.08922
3.99571 -5.34437 1.18798
3.99571 -5.34437 1.28675
3.9957 -5.34437 1.38551
3.99569 -5.34437 1.48428
3.99568 -5.34437 1.58304
3.99568 -5.34437 1.68181
3.99567 -5.34437 1.78057
3.99566 -5.34437 1.87934
3.99565 -5.34437 1.9781
3.99565 -5.34437 2.07687
3.99564 -5.34437 2.17563
3.99563 -5.34437 2.2744
3.99562 -5.34437 2.37317
3.99561 -5.34436 2.47193
3.99561 -5.34436 2.5707
3.9956 -5.34436 2.66946
3.9882 -5.4437 0.200326
3.9806 -5.54303 0.200326
3.97301 -5.64236 0.200326
3.96541 -5.74168 0.200326
3.95782 -5.84101 0.200326
3.95022 -5.94034 0.200326
3.94263 -6.03966 0.200325
3.93503 -6.13899 0.200325
3.92744 -6.23832 0.200325
3.91984 -6.33764 0.200325
3.91225 -6.43697 0.200325
3.90465 -6.5363 0.200325
3.89706 -6.63563 0.200325
3.88946 -6.73495 0.200325
3.88187 -6.83428 0.200325
3.87427 -6.93361 0.200324
3.86668 -7.03293 0.200324
3.85908 -7.13226 0.200324
3.85149 -7.23159 0.200324
3.84389 -7.33091 0.200324
3.8363 -7.43024 0.200324
3.8287 -7.52957 0.200324
3.82111 -7.62889 0.200324
3.81351 -7.72822 0.200323
3.80592 -7.82755 0.200323
3.79832 -7.92688 0.200323
3.79073 -8.0262 0.200323
3.78313 -8.12553 0.200323
3.77554 -8.22486 0.200323
3.76794 -8.32418 0.200323
3.76035 -8.42351 0.200323
3.75275 -8.52284 0.200323
3.74516 -8.62216 0.200322
3.73756 -8.72149 0.200322
3.72997 -8.82082 0.200322
3.72237 -8.92014 0.200322
3.71478 -9.01947 0.200322
3.70718 -9.1188 0.200322
3.69959 -9.21813 0.200322
5.15841 8.5538 0.20035
5.15081 8.45447 0.20035
5.14322 8.35514 0.20035
5.13562 8.25582 0.20035
5.12803 8.15649 0.20035
5.12043 8.05716 0.200349
5.11284 7.95784 0.200349
5.10524 7.85851 0.200349
5.09765 7.75918 0.200349
5.09005 7.65986 0.200349
5.08246 7.56053 0.200349
5.07486 7.4612 0.200349
5.06727 7.36187 0.200349
5.05967 7.26255 0.200349
5.05208 7.16322 0.200348
5.04448 7.06389 0.200348
5.03689 6.96457 0.200348
5.02929 6.86524 0.200348
5.0217 6.76591 0.200348
5.0141 6.66659 0.200348
5.00651 6.56726 0.200348
4.99891 6.46793 0.200348
4.99132 6.36861 0.200347
4.98373 6.26928 0.200347
4.97613 6.16995 0.200347
4.96854 6.07062 0.200347
4.96094 5.9713 0.200347
4.95335 5.87197 0.200347
4.94575 5.77264 0.200347
4.93816 5.67332 0.200347
4.93056 5.57399 0.200347
4.92297 5.47466 0.200346
4.91537 5.37534 0.200346
4.90778 5.27601 0.200346
4.90018 5.17668 0.200346
4.89259 5.07736 0.200346
4.88499 4.97803 0.200346
4.8774 4.8787 0.200346
4.8698 4.77937 0.200346
4.86221 4.68005 0.200346
4.8622 4.68005 0.299111
4.86219 4.68005 0.397876
4.86218 4.68005 0.496642
4.86218 4.68005 0.595407
4.86217 4.68005 0.694173
4.86216 4.68005 0.792938
4.86215 4.68005 0.891704
4.86214 4.68005 0.990469
4.86214 4.68005 1.08923
4.86213 4.68005 1.188
4.86212 4.68005 1.28677
4.86211 4.68005 1.38553
4.86211 4.68005 1.4843
4.8621 4.68005 1.58306
4.86209 4.68005 1.68183
4.86208 4.68006 1.78059
4.86208 4.68006 1.87936
4.86207 4.68006 1.97812
4.86206 4.68006 2.07689
4.86205 4.68006 2.17565
4.86204 4.68006 2.27442
4.86204 4.68006 2.37319
4.86203 4.68006 2.47195
4.86202 4.68006 2.57072
4.86201 4.68006 2.66948
4.85461 4.58072 0.200345
4.85442 4.58073 2.66948
4.84702 4.48139 0.200345
4.84701 4.48139 0.299111
4.847 4.48139 0.397876
4.84699 4.4814 0.496642
4.84699 4.4814 0.595407
4.84698 4.4814 0.694172
4.84697 4.4814 0.792938
4.84696 4.4814 0.891703
4.84695 4.4814 0.990469
4.84695 4.4814 1.08923
4.84694 4.4814 1.188
4.84693 4.4814 1.28677
4.84692 4.4814 1.38553
4.84692 4.4814 1.4843
4.84691 4.4814 1.58306
4.8469 4.4814 1.68183
4.84689 4.4814 1.78059
4.84689 4.4814 1.87936
4.84688 4.4814 1.97812
4.84687 4.4814 2.07689
4.84686 4.4814 2.17565
4.84685 4.4814 2.27442
4.84685 4.4814 2.37318
4.84684 4.4814 2.47195
4.84683 4.48141 2.57072
4.84682 4.48141 2.66948
4.83942 4.38207 0.200345
4.83183 4.28274 0.200345
4.82423 4.18341 0.200345
4.81664 4.08409 0.200345
4.80904 3.98476 0.200345
4.80145 3.88543 0.200345
4.79385 3.78611 0.200345
4.78626 3.68678 0.200344
4.77866 3.58745 0.200344
4.77107 3.48812 0.200344
4.76347 3.3888 0.200344
4.75588 3.28947 0.200344
4.74828 3.19014 0.200344
4.74069 3.09082 0.200344
4.73309 2.99149 0.200344
4.7255 2.89216 0.200343
4.7179 2.79284 0.200343
4.71031 2.69351 0.200343
4.70271 2.59418 0.200343
4.69512 2.49486 0.200343
4.68752 2.39553 0.200343
4.67993 2.2962 0.200343
4.67233 2.19687 0.200343
4.66474 2.09755 0.200343
4.65714 1.99822 0.200342
4.64955 1.89889 0.200342
4.64195 1.79957 0.200342
4.63436 1.70024 0.200342
4.62676 1.60091 0.200342
4.61917 1.50159 0.200342
4.61157 1.40226 0.200342
4.60398 1.30293 0.200342
4.59638 1.20361 0.200342
4.58879 1.10428 0.200341
4.58119 1.00495 0.200341
4.5736 0.905625 0.200341
4.566 0.806298 0.200341
4.55841 0.706971 0.200341
4.55081 0.607644 0.200341
4.54322 0.508317 0.200341
4.53562 0.40899 0.200341
4.52803 0.309663 0.200341
4.52043 0.210337 0.20034
4.51284 0.11101 0.20034
4.50524 0.0116829 0.20034
4.49765 -0.0876441 0.20034
4.49005 -0.186971 0.20034
4.48246 -0.286298 0.20034
4.47487 -0.385625 0.20034
4.46727 -0.484951 0.20034
4.45968 -0.584278 0.200339
4.45208 -0.683606 0.200339
4.44449 -0.782933 0.200339
4.43689 -0.88226 0.200339
4.4293 -0.981587 0.200339
4.4217 -1.08091 0.200339
4.41411 -1.18024 0.200339
4.40651 -1.27957 0.200339
4.39892 -1.37889 0.200339
4.39132 -1.47822 0.200338
4.38373 -1.57755 0.200338
4.37613 -1.67688 0.200338
4.36854 -1.7762 0.200338
4.36094 -1.87553 0.200338
4.35335 -1.97486 0.200338
4.34575 -2.07418 0.200338
4.33816 -2.17351 0.200338
4.33056 -2.27284 0.200338
4.32297 -2.37216 0.200337
4.31537 -2.47149 0.200337
4.30778 -2.57082 0.200337
4.30018 -2.67014 0.200337
4.29259 -2.76947 0.200337
4.28499 -2.8688 0.200337
4.2774 -2.96812 0.200337
4.2698 -3.06745 0.200337
4.26221 -3.16678 0.200337
4.25461 -3.26611 0.200336
4.24702 -3.36543 0.200336
4.23942 -3.46476 0.200336
4.23183 -3.56409 0.200336
4.22423 -3.66341 0.200336
4.21664 -3.76274 0.200336
4.20904 -3.86207 0.200336
4.20145 -3.96139 0.200336
4.19385 -4.06072 0.200335
4.18626 -4.16005 0.200335
4.17866 -4.25937 0.200335
4.17107 -4.3587 0.200335
4.16347 -4.45803 0.200335
4.15588 -4.55735 0.200335
4.14828 -4.65668 0.200335
4.14069 -4.75601 0.200335
4.13309 -4.85534 0.200335
4.1255 -4.95466 0.200334
4.1179 -5.05399 0.200334
4.11031 -5.15332 0.200334
4.1103 -5.15332 0.2991
4.11029 -5.15332 0.397865
4.11029 -5.15332 0.496631
4.11028 -5.15331 0.595396
4.11027 -5.15331 0.694161
4.11026 -5.15331 0.792927
4.11025 -5.15331 0.891692
4.11025 -5.15331 0.990458
4.11024 -5.15331 1.08922
4.11023 -5.15331 1.18799
4.11022 -5.15331 1.28675
4.11022 -5.15331 1.38552
4.11021 -5.15331 1.48428
4.1102 -5.15331 1.58305
4.11019 -5.15331 1.68182
4.11019 -5.15331 1.78058
4.11018 -5.15331 1.87935
4.11017 -5.15331 1.97811
4.11016 -5.15331 2.07688
4.11015 -5.15331 2.17564
4.11015 -5.15331 2.27441
4.11014 -5.15331 2.37317
4.11013 -5.15331 2.47194
4.11012 -5.15331 2.5707
4.11012 -5.1533 2.66947
4.10271 -5.25264 0.200334
4.10252 -5.25263 2.66947
4.09512 -5.35197 0.200334
4.09511 -5.35197 0.299099
4.0951 -5.35197 0.397865
4.0951 -5.35197 0.49663
4.09509 -5.35197 0.595396
4.09508 -5.35197 0.694161
4.09507 -5.35197 0.792927
4.09506 -5.35197 0.891692
4.09506 -5.35197 0.990457
4.09505 -5.35197 1.08922
4.09504 -5.35197 1.18799
4.09503 -5.35197 1.28675
4.09503 -5.35196 1.38552
4.09502 -5.35196 1.48428
4.09501 -5.35196 1.58305
4.095 -5.35196 1.68182
4.095 -5.35196 1.78058
4.09499 -5.35196 1.87935
4.09498 -5.35196 1.97811
4.09497 -5.35196 2.07688
4.09496 -5.35196 2.17564
4.09496 -5.35196 2.27441
4.09495 -5.35196 2.37317
4.09494 -5.35196 2.47194
4.09493 -5.35196 2.5707
4.09493 -5.35196 2.66947
4.08752 -5.4513 0.200334
4.07993 -5.55062 0.200334
4.07233 -5.64995 0.200334
4.06474 -5.74928 0.200334
4.05714 -5.8486 0.200333
4.04955 -5.94793 0.200333
4.04195 -6.04726 0.200333
4.03436 -6.14659 0.200333
4.02676 -6.24591 0.200333
4.01917 -6.34524 0.200333
4.01157 -6.44457 0.200333
4.00398 -6.54389 0.200333
3.99638 -6.64322 0.200333
3.98879 -6.74255 0.200332
3.98119 -6.84187 0.200332
3.9736 -6.9412 0.200332
3.96601 -7.04053 0.200332
3.95841 -7.13985 0.200332
3.95082 -7.23918 0.200332
3.94322 -7.33851 0.200332
3.93563 -7.43784 0.200332
3.92803 -7.53716 0.200331
3.92044 -7.63649 0.200331
3.91284 -7.73582 0.200331
3.90525 -7.83514 0.200331
3.89765 -7.93447 0.200331
3.89006 -8.0338 0.200331
3.88246 -8.13312 0.200331
3.87487 -8.23245 0.200331
3.86727 -8.33178 0.200331
3.85968 -8.4311 0.20033
3.85208 -8.53043 0.20033
3.84449 -8.62976 0.20033
3.83689 -8.72908 0.20033
3.8293 -8.82841 0.20033
3.8217 -8.92774 0.20033
3.81411 -9.02707 0.20033
3.80651 -9.12639 0.20033
3.79892 -9.22572 0.20033
5.25014 8.44687 0.200358
5.24255 8.34755 0.200358
5.23495 8.24822 0.200357
5.22736 8.14889 0.200357
5.21976 8.04957 0.200357
5.21217 7.95024 0.200357
5.20457 7.85091 0.200357
5.19698 7.75159 0.200357
5.18938 7.65226 0.200357
5.18179 7.55293 0.200357
5.17419 7.45361 0.200357
5.1666 7.35428 0.200356
5.159 7.25495 0.200356
5.15141 7.15563 0.200356
5.14381 7.0563 0.200356
5.13622 6.95697 0.200356
5.12862 6.85764 0.200356
5.12103 6.75832 0.200356
5.11343 6.65899 0.200356
5.10584 6.55966 0.200355
5.09824 6.46034 0.200355
5.09065 6.36101 0.200355
5.08305 6.26168 0.200355
5.07546 6.16236 0.200355
5.06786 6.06303 0.200355
5.06027 5.9637 0.200355
5.05267 5.86438 0.200355
5.04508 5.76505 0.200355
5.03748 5.66572 0.200354
5.02989 5.56639 0.200354
5.02229 5.46707 0.200354
5.0147 5.36774 0.200354
5.0071 5.26841 0.200354
4.99951 5.16909 0.200354
4.99191 5.06976 0.200354
4.98432 4.97043 0.200354
4.97672 4.87111 0.200354
4.96913 4.77178 0.200353
4.96153 4.67245 0.200353
4.96153 4.67245 0.299119
4.96152 4.67245 0.397884
4.96151 4.67245 0.49665
4.9615 4.67245 0.595415
4.96149 4.67246 0.69418
4.96149 4.67246 0.792946
4.96148 4.67246 0.891711
4.96147 4.67246 0.990477
4.96146 4.67246 1.08924
4.96146 4.67246 1.18801
4.96145 4.67246 1.28677
4.96144 4.67246 1.38554
4.96143 4.67246 1.4843
4.96143 4.67246 1.58307
4.96142 4.67246 1.68183
4.96141 4.67246 1.7806
4.9614 4.67246 1.87937
4.96139 4.67246 1.97813
4.96139 4.67246 2.0769
4.96138 4.67246 2.17566
4.96137 4.67246 2.27443
4.96136 4.67246 2.37319
4.96136 4.67246 2.47196
4.96135 4.67246 2.57072
4.96134 4.67246 2.66949
4.95394 4.57313 0.200353
4.95375 4.57314 2.66949
4.94634 4.4738 0.200353
4.94634 4.4738 0.299119
4.94633 4.4738 0.397884
4.94632 4.4738 0.496649
4.94631 4.4738 0.595415
4.9463 4.4738 0.69418
4.9463 4.4738 0.792946
4.94629 4.4738 0.891711
4.94628 4.4738 0.990477
4.94627 4.4738 1.08924
4.94627 4.4738 1.18801
4.94626 4.4738 1.28677
4.94625 4.4738 1.38554
4.94624 4.47381 1.4843
4.94624 4.47381 1.58307
4.94623 4.47381 1.68183
4.94622 4.47381 1.7806
4.94621 4.47381 1.87937
4.9462 4.47381 1.97813
4.9462 4.47381 2.0769
4.94619 4.47381 2.17566
4.94618 4.47381 2.27443
4.94617 4.47381 2.37319
4.94617 4.47381 2.47196
4.94616 4.47381 2.57072
4.94615 4.47381 2.66949
4.93875 4.37447 0.200353
4.93115 4.27514 0.200353
4.92356 4.17582 0.200353
4.91596 4.07649 0.200353
4.90837 3.97716 0.200353
4.90077 3.87784 0.200352
4.89318 3.77851 0.200352
4.88558 3.67918 0.200352
4.87799 3.57986 0.200352
4.87039 3.48053 0.200352
4.8628 3.3812 0.200352
4.8552 3.28188 0.200352
4.84761 3.18255 0.200352
4.84001 3.08322 0.200351
4.83242 2.9839 0.200351
4.82482 2.88457 0.200351
4.81723 2.78524 0.200351
4.80963 2.68591 0.200351
4.80204 2.58659 0.200351
4.79444 2.48726 0.200351
4.78685 2.38793 0.200351
4.77926 2.28861 0.200351
4.77166 2.18928 0.20035
4.76407 2.08995 0.20035
4.75647 1.99063 0.20035
4.74888 1.8913 0.20035
4.74128 1.79197 0.20035
4.73369 1.69265 0.20035
4.72609 1.59332 0.20035
4.7185 1.49399 0.20035
4.7109 1.39466 0.20035
4.70331 1.29534 0.200349
4.69571 1.19601 0.200349
4.68812 1.09668 0.200349
4.68052 0.997357 0.200349
4.67293 0.89803 0.200349
4.66533 0.798704 0.200349
4.65774 0.699376 0.200349
4.65014 0.600049 0.200349
4.64255 0.500722 0.200349
4.63495 0.401395 0.200348
4.62736 0.302068 0.200348
4.61976 0.202742 0.200348
4.61217 0.103415 0.200348
4.60457 0.00408801 0.200348
4.59698 -0.0952391 0.200348
4.58938 -0.194566 0.200348
4.58179 -0.293893 0.200348
4.57419 -0.39322 0.200347
4.5666 -0.492546 0.200347
4.559 -0.591873 0.200347
4.55141 -0.6912 0.200347
4.54381 -0.790528 0.200347
4.53622 -0.889855 0.200347
4.52862 -0.989182 0.200347
4.52103 -1.08851 0.200347
4.51343 -1.18783 0.200347
4.50584 -1.28716 0.200346
4.49824 -1.38649 0.200346
4.49065 -1.48582 0.200346
4.48305 -1.58514 0.200346
4.47546 -1.68447 0.200346
4.46786 -1.7838 0.200346
4.46027 -1.88312 0.200346
4.45267 -1.98245 0.200346
4.44508 -2.08178 0.200346
4.43748 -2.1811 0.200345
4.42989 -2.28043 0.200345
4.42229 -2.37976 0.200345
4.4147 -2.47908 0.200345
4.4071 -2.57841 0.200345
4.39951 -2.67774 0.200345
4.39191 -2.77707 0.200345
4.38432 -2.87639 0.200345
4.37672 -2.97572 0.200345
4.36913 -3.07505 0.200344
4.36153 -3.17437 0.200344
4.35394 -3.2737 0.200344
4.34634 -3.37303 0.200344
4.33875 -3.47235 0.200344
4.33115 -3.57168 0.200344
4.32356 -3.67101 0.200344
4.31596 -3.77033 0.200344
4.30837 -3.86966 0.200343
4.30077 -3.96899 0.200343
4.29318 -4.06832 0.200343
4.28558 -4.16764 0.200343
4.27799 -4.26697 0.200343
4.2704 -4.3663 0.200343
4.2628 -4.46562 0.200343
4.25521 -4.56495 0.200343
4.24761 -4.66428 0.200343
4.24002 -4.7636 0.200342
4.23242 -4.86293 0.200342
4.22483 -4.96226 0.200342
4.21723 -5.06158 0.200342
4.20964 -5.16091 0.200342
4.20963 -5.16091 0.299107
4.20962 -5.16091 0.397873
4.20961 -5.16091 0.496638
4.2096 -5.16091 0.595404
4.2096 -5.16091 0.694169
4.20959 -5.16091 0.792935
4.20958 -5.16091 0.8917
4.20957 -5.16091 0.990465
4.20957 -5.16091 1.08923
4.20956 -5.16091 1.188
4.20955 -5.16091 1.28676
4.20954 -5.16091 1.38553
4.20954 -5.16091 1.48429
4.20953 -5.1609 1.58306
4.20952 -5.1609 1.68182
4.20951 -5.1609 1.78059
4.2095 -5.1609 1.87935
4.2095 -5.1609 1.97812
4.20949 -5.1609 2.07689
4.20948 -5.1609 2.17565
4.20947 -5.1609 2.27442
4.20947 -5.1609 2.37318
4.20946 -5.1609 2.47195
4.20945 -5.1609 2.57071
4.20944 -5.1609 2.66948
4.20204 -5.26024 0.200342
4.20185 -5.26023 2.66948
4.19445 -5.35957 0.200342
4.19444 -5.35957 0.299107
4.19443 -5.35956 0.397873
4.19442 -5.35956 0.496638
4.19442 -5.35956 0.595404
4.19441 -5.35956 0.694169
4.1944 -5.35956 0.792934
4.19439 -5.35956 0.8917
4.19438 -5.35956 0.990465
4.19438 -5.35956 1.08923
4.19437 -5.35956 1.188
4.19436 -5.35956 1.28676
4.19435 -5.35956 1.38553
4.19435 -5.35956 1.48429
4.19434 -5.35956 1.58306
4.19433 -5.35956 1.68182
4.19432 -5.35956 1.78059
4.19431 -5.35956 1.87935
4.19431 -5.35956 1.97812
4.1943 -5.35956 2.07689
4.19429 -5.35956 2.17565
4.19428 -5.35956 2.27442
4.19428 -5.35956 2.37318
4.19427 -5.35955 2.47195
4.19426 -5.35955 2.57071
4.19425 -5.35955 2.66948
4.18685 -5.45889 0.200342
4.17926 -5.55822 0.200342
4.17166 -5.65755 0.200341
4.16407 -5.75687 0.200341
4.15647 -5.8562 0.200341
4.14888 -5.95553 0.200341
4.14128 -6.05485 0.200341
4.13369 -6.15418 0.200341
4.12609 -6.25351 0.200341
4.1185 -6.35283 0.200341
4.1109 -6.45216 0.200341
4.10331 -6.55149 0.20034
4.09571 -6.65082 0.20034
4.08812 -6.75014 0.20034
4.08052 -6.84947 0.20034
4.07293 -6.9488 0.20034
4.06533 -7.04812 0.20034
4.05774 -7.14745 0.20034
4.05014 -7.24678 0.20034
4.04255 -7.3461 0.200339
4.03495 -7.44543 0.200339
4.02736 -7.54476 0.200339
4.01976 -7.64408 0.200339
4.01217 -7.74341 0.200339
4.00457 -7.84274 0.200339
3.99698 -7.94207 0.200339
3.98938 -8.04139 0.200339
3.98179 -8.14072 0.200339
3.97419 -8.24005 0.200338
3.9666 -8.33937 0.200338
3.959 -8.4387 0.200338
3.95141 -8.53803 0.200338
3.94381 -8.63735 0.200338
3.93622 -8.73668 0.200338
3.92862 -8.83601 0.200338
3.92103 -8.93533 0.200338
3.91343 -9.03466 0.200338
3.90584 -9.13399 0.200337
5.34947 8.43928 0.200365
5.34187 8.33995 0.200365
5.33428 8.24063 0.200365
5.32668 8.1413 0.200365
5.31909 8.04197 0.200365
5.31149 7.94265 0.200365
5.3039 7.84332 0.200365
5.2963 7.74399 0.200365
5.28871 7.64467 0.200365
5.28111 7.54534 0.200364
5.27352 7.44601 0.200364
5.26592 7.34668 0.200364
5.25833 7.24736 0.200364
5.25073 7.14803 0.200364
5.24314 7.0487 0.200364
5.23554 6.94938 0.200364
5.22795 6.85005 0.200364
5.22035 6.75072 0.200364
5.21276 6.6514 0.200363
5.20516 6.55207 0.200363
5.19757 6.45274 0.200363
5.18997 6.35342 0.200363
5.18238 6.25409 0.200363
5.17478 6.15476 0.200363
5.16719 6.05543 0.200363
5.15959 5.95611 0.200363
5.152 5.85678 0.200362
5.1444 5.75745 0.200362
5.13681 5.65813 0.200362
5.12921 5.5588 0.200362
5.12162 5.45947 0.200362
5.11402 5.36015 0.200362
5.10643 5.26082 0.200362
5.09883 5.16149 0.200362
5.09124 5.06217 0.200362
5.08365 4.96284 0.200361
5.07605 4.86351 0.200361
5.06846 4.76418 0.200361
5.06086 4.66486 0.200361
5.06085 4.66486 0.299127
5.06084 4.66486 0.397892
5.06084 4.66486 0.496657
5.06083 4.66486 0.595423
5.06082 4.66486 0.694188
5.06081 4.66486 0.792954
5.06081 4.66486 0.891719
5.0608 4.66486 0.990485
5.06079 4.66486 1.08925
5.06078 4.66486 1.18802
5.06078 4.66486 1.28678
5.06077 4.66486 1.38555
5.06076 4.66486 1.48431
5.06075 4.66486 1.58308
5.06074 4.66486 1.68184
5.06074 4.66487 1.78061
5.06073 4.66487 1.87937
5.06072 4.66487 1.97814
5.06071 4.66487 2.0769
5.06071 4.66487 2.17567
5.0607 4.66487 2.27444
5.06069 4.66487 2.3732
5.06068 4.66487 2.47197
5.06068 4.66487 2.57073
5.06067 4.66487 2.6695
5.05327 4.56553 0.200361
5.05307 4.56554 2.6695
5.04567 4.4662 0.200361
5.04566 4.4662 0.299126
5.04566 4.4662 0.397892
5.04565 4.46621 0.496657
5.04564 4.46621 0.595423
5.04563 4.46621 0.694188
5.04562 4.46621 0.792953
5.04562 4.46621 0.891719
5.04561 4.46621 0.990484
5.0456 4.46621 1.08925
5.04559 4.46621 1.18802
5.04559 4.46621 1.28678
5.04558 4.46621 1.38555
5.04557 4.46621 1.48431
5.04556 4.46621 1.58308
5.04556 4.46621 1.68184
5.04555 4.46621 1.78061
5.04554 4.46621 1.87937
5.04553 4.46621 1.97814
5.04552 4.46621 2.0769
5.04552 4.46621 2.17567
5.04551 4.46621 2.27443
5.0455 4.46621 2.3732
5.04549 4.46621 2.47197
5.04549 4.46622 2.57073
5.04548 4.46622 2.6695
5.03808 4.36688 0.200361
5.03048 4.26755 0.200361
5.02289 4.16822 0.200361
5.01529 4.0689 0.20036
5.0077 3.96957 0.20036
5.0001 3.87024 0.20036
4.99251 3.77092 0.20036
4.98491 3.67159 0.20036
4.97732 3.57226 0.20036
4.96972 3.47293 0.20036
4.96213 3.37361 0.20036
4.95453 3.27428 0.20036
4.94694 3.17495 0.200359
4.93934 3.07563 0.200359
4.93175 2.9763 0.200359
4.92415 2.87697 0.200359
4.91656 2.77765 0.200359
4.90896 2.67832 0.200359
4.90137 2.57899 0.200359
4.89377 2.47967 0.200359
4.88618 2.38034 0.200358
4.87858 2.28101 0.200358
4.87099 2.18168 0.200358
4.86339 2.08236 0.200358
4.8558 1.98303 0.200358
4.8482 1.8837 0.200358
4.84061 1.78438 0.200358
4.83301 1.68505 0.200358
4.82542 1.58572 0.200358
4.81782 1.4864 0.200357
4.81023 1.38707 0.200357
4.80263 1.28774 0.200357
4.79504 1.18842 0.200357
4.78744 1.08909 0.200357
4.77985 0.989762 0.200357
4.77225 0.890435 0.200357
4.76466 0.791109 0.200357
4.75706 0.691782 0.200357
4.74947 0.592454 0.200356
4.74187 0.493127 0.200356
4.73428 0.3938 0.200356
4.72668 0.294473 0.200356
4.71909 0.195147 0.200356
4.71149 0.0958201 0.200356
4.7039 -0.00350693 0.200356
4.6963 -0.102834 0.200356
4.68871 -0.202161 0.200356
4.68111 -0.301488 0.200355
4.67352 -0.400815 0.200355
4.66592 -0.500141 0.200355
4.65833 -0.599468 0.200355
4.65073 -0.698795 0.200355
4.64314 -0.798122 0.200355
4.63554 -0.89745 0.200355
4.62795 -0.996777 0.200355
4.62035 -1.0961 0.200354
4.61276 -1.19543 0.200354
4.60516 -1.29476 0.200354
4.59757 -1.39408 0.200354
4.58998 -1.49341 0.200354
4.58238 -1.59274 0.200354
4.57479 -1.69207 0.200354
4.56719 -1.79139 0.200354
4.5596 -1.89072 0.200354
4.552 -1.99005 0.200353
4.54441 -2.08937 0.200353
4.53681 -2.1887 0.200353
4.52922 -2.28803 0.200353
4.52162 -2.38735 0.200353
4.51403 -2.48668 0.200353
4.50643 -2.58601 0.200353
4.49884 -2.68533 0.200353
4.49124 -2.78466 0.200353
4.48365 -2.88399 0.200352
4.47605 -2.98331 0.200352
4.46846 -3.08264 0.200352
4.46086 -3.18197 0.200352
4.45327 -3.2813 0.200352
4.44567 -3.38062 0.200352
4.43808 -3.47995 0.200352
4.43048 -3.57928 0.200352
4.42289 -3.6786 0.200352
4.41529 -3.77793 0.200351
4.4077 -3.87726 0.200351
4.4001 -3.97658 0.200351
4.39251 -4.07591 0.200351
4.38491 -4.17524 0.200351
4.37732 -4.27456 0.200351
4.36972 -4.37389 0.200351
4.36213 -4.47322 0.200351
4.35453 -4.57254 0.20035
4.34694 -4.67187 0.20035
4.33934 -4.7712 0.20035
4.33175 -4.87053 0.20035
4.32415 -4.96985 0.20035
4.31656 -5.06918 0.20035
4.30896 -5.16851 0.20035
4.30896 -5.16851 0.299115
4.30895 -5.16851 0.397881
4.30894 -5.1685 0.496646
4.30893 -5.1685 0.595412
4.30892 -5.1685 0.694177
4.30892 -5.1685 0.792942
4.30891 -5.1685 0.891708
4.3089 -5.1685 0.990473
4.30889 -5.1685 1.08924
4.30889 -5.1685 1.188
4.30888 -5.1685 1.28677
4.30887 -5.1685 1.38553
4.30886 -5.1685 1.4843
4.30886 -5.1685 1.58307
4.30885 -5.1685 1.68183
4.30884 -5.1685 1.7806
4.30883 -5.1685 1.87936
4.30882 -5.1685 1.97813
4.30882 -5.1685 2.07689
4.30881 -5.1685 2.17566
4.3088 -5.1685 2.27442
4.30879 -5.1685 2.37319
4.30879 -5.1685 2.47195
4.30878 -5.16849 2.57072
4.30877 -5.16849 2.66949
4.30137 -5.26783 0.20035
4.30118 -5.26782 2.66949
4.29377 -5.36716 0.20035
4.29377 -5.36716 0.299115
4.29376 -5.36716 0.39788
4.29375 -5.36716 0.496646
4.29374 -5.36716 0.595411
4.29373 -5.36716 0.694177
4.29373 -5.36716 0.792942
4.29372 -5.36716 0.891708
4.29371 -5.36716 0.990473
4.2937 -5.36716 1.08924
4.2937 -5.36716 1.188
4.29369 -5.36716 1.28677
4.29368 -5.36715 1.38553
4.29367 -5.36715 1.4843
4.29367 -5.36715 1.58307
4.29366 -5.36715 1.68183
4.29365 -5.36715 1.7806
4.29364 -5.36715 1.87936
4.29363 -5.36715 1.97813
4.29363 -5.36715 2.07689
4.29362 -5.36715 2.17566
4.29361 -5.36715 2.27442
4.2936 -5.36715 2.37319
4.2936 -5.36715 2.47195
4.29359 -5.36715 2.57072
4.29358 -5.36715 2.66949
4.28618 -5.46649 0.200349
4.27858 -5.56581 0.200349
4.27099 -5.66514 0.200349
4.26339 -5.76447 0.200349
4.2558 -5.86379 0.200349
4.2482 -5.96312 0.200349
4.24061 -6.06245 0.200349
4.23301 -6.16178 0.200349
4.22542 -6.2611 0.200349
4.21782 -6.36043 0.200348
4.21023 -6.45976 0.200348
4.20263 -6.55908 0.200348
4.19504 -6.65841 0.200348
4.18744 -6.75774 0.200348
4.17985 -6.85706 0.200348
4.17225 -6.95639 0.200348
4.16466 -7.05572 0.200348
4.15706 -7.15504 0.200348
4.14947 -7.25437 0.200347
4.14187 -7.3537 0.200347
4.13428 -7.45302 0.200347
4.12668 -7.55235 0.200347
4.11909 -7.65168 0.200347
4.11149 -7.75101 0.200347
4.1039 -7.85033 0.200347
4.0963 -7.94966 0.200347
4.08871 -8.04899 0.200346
4.08112 -8.14831 0.200346
4.07352 -8.24764 0.200346
4.06593 -8.34697 0.200346
4.05833 -8.44629 0.200346
4.05074 -8.54562 0.200346
4.04314 -8.64495 0.200346
4.03555 -8.74427 0.200346
4.02795 -8.8436 0.200346
4.02036 -8.94293 0.200345
4.01276 -9.04226 0.200345
4.00517 -9.14158 0.200345
5.4412 8.33236 0.200373
5.4336 8.23303 0.200373
5.42601 8.1337 0.200373
5.41841 8.03438 0.200373
5.41082 7.93505 0.200373
5.40323 7.83572 0.200373
5.39563 7.7364 0.200372
5.38804 7.63707 0.200372
5.38044 7.53774 0.200372
5.37285 7.43842 0.200372
5.36525 7.33909 0.200372
5.35766 7.23976 0.200372
5.35006 7.14044 0.200372
5.34247 7.04111 0.200372
5.33487 6.94178 0.200372
5.32728 6.84245 0.200371
5.31968 6.74313 0.200371
5.31209 6.6438 0.200371
5.30449 6.54447 0.200371
5.2969 6.44515 0.200371
5.2893 6.34582 0.200371
5.28171 6.24649 0.200371
5.27411 6.14717 0.200371
5.26652 6.04784 0.20037
5.25892 5.94851 0.20037
5.25133 5.84919 0.20037
5.24373 5.74986 0.20037
5.23614 5.65053 0.20037
5.22854 5.5512 0.20037
5.22095 5.45188 0.20037
5.21335 5.35255 0.20037
5.20576 5.25322 0.20037
5.19816 5.1539 0.200369
5.19057 5.05457 0.200369
5.18297 4.95524 0.200369
5.17538 4.85592 0.200369
5.16778 4.75659 0.200369
5.16019 4.65726 0.200369
5.16018 4.65726 0.299134
5.16017 4.65726 0.3979
5.16016 4.65726 0.496665
5.16016 4.65726 0.595431
5.16015 4.65727 0.694196
5.16014 4.65727 0.792961
5.16013 4.65727 0.891727
5.16013 4.65727 0.990492
5.16012 4.65727 1.08926
5.16011 4.65727 1.18802
5.1601 4.65727 1.28679
5.16009 4.65727 1.38555
5.16009 4.65727 1.48432
5.16008 4.65727 1.58308
5.16007 4.65727 1.68185
5.16006 4.65727 1.78062
5.16006 4.65727 1.87938
5.16005 4.65727 1.97815
5.16004 4.65727 2.07691
5.16003 4.65727 2.17568
5.16003 4.65727 2.27444
5.16002 4.65727 2.37321
5.16001 4.65727 2.47197
5.16 4.65727 2.57074
5.15999 4.65727 2.6695
5.15259 4.55794 0.200369
5.15258 4.55794 0.299134
5.15258 4.55794 0.3979
5.15257 4.55794 0.496665
5.15256 4.55794 0.59543
5.15255 4.55794 0.694196
5.15255 4.55794 0.792961
5.15254 4.55794 0.891727
5.15253 4.55794 0.990492
5.15252 4.55794 1.08926
5.15252 4.55794 1.18802
5.15251 4.55794 1.28679
5.1525 4.55794 1.38555
5.15249 4.55794 1.48432
5.15248 4.55794 1.58308
5.15248 4.55794 1.68185
5.15247 4.55794 1.78062
5.15246 4.55794 1.87938
5.15245 4.55794 1.97815
5.15245 4.55795 2.07691
5.15244 4.55795 2.17568
5.15243 4.55795 2.27444
5.15242 4.55795 2.37321
5.15242 4.55795 2.47197
5.15241 4.55795 2.57074
5.1524 4.55795 2.6695
5.145 4.45861 0.200369
5.14499 4.45861 0.299134
5.14498 4.45861 0.3979
5.14497 4.45861 0.496665
5.14497 4.45861 0.59543
5.14496 4.45861 0.694196
5.14495 4.45861 0.792961
5.14494 4.45861 0.891727
5.14494 4.45861 0.990492
5.14493 4.45861 1.08926
5.14492 4.45861 1.18802
5.14491 4.45861 1.28679
5.14491 4.45861 1.38555
5.1449 4.45862 1.48432
5.14489 4.45862 1.58308
5.14488 4.45862 1.68185
5.14487 4.45862 1.78062
5.14487 4.45862 1.87938
5.14486 4.45862 1.97815
5.14485 4.45862 2.07691
5.14484 4.45862 2.17568
5.14484 4.45862 2.27444
5.14483 4.45862 2.37321
5.14482 4.45862 2.47197
5.14481 4.45862 2.57074
5.14481 4.45862 2.6695
5.1374 4.35928 0.200369
5.13739 4.35928 0.299134
5.13739 4.35928 0.397899
5.13738 4.35928 0.496665
5.13737 4.35928 0.59543
5.13736 4.35928 0.694196
5.13736 4.35928 0.792961
5.13735 4.35929 0.891727
5.13734 4.35929 0.990492
5.13733 4.35929 1.08926
5.13733 4.35929 1.18802
5.13732 4.35929 1.28679
5.13731 4.35929 1.38555
5.1373 4.35929 1.48432
5.13729 4.35929 1.58308
5.13729 4.35929 1.68185
5.13728 4.35929 1.78062
5.13727 4.35929 1.87938
5.13726 4.35929 1.97815
5.13726 4.35929 2.07691
5.13725 4.35929 2.17568
5.13724 4.35929 2.27444
5.13723 4.35929 2.37321
5.13723 4.35929 2.47197
5.13722 4.35929 2.57074
5.13721 4.35929 2.6695
5.12981 4.25995 0.200368
5.1298 4.25996 0.299134
5.12979 4.25996 0.397899
5.12978 4.25996 0.496665
5.12978 4.25996 0.59543
5.12977 4.25996 0.694196
5.12976 4.25996 0.792961
5.12975 4.25996 0.891726
5.12975 4.25996 0.990492
5.12974 4.25996 1.08926
5.12973 4.25996 1.18802
5.12972 4.25996 1.28679
5.12972 4.25996 1.38555
5.12971 4.25996 1.48432
5.1297 4.25996 1.58308
5.12969 4.25996 1.68185
5.12968 4.25996 1.78062
5.12968 4.25996 1.87938
5.12967 4.25996 1.97815
5.12966 4.25996 2.07691
5.12965 4.25996 2.17568
5.12965 4.25996 2.27444
5.12964 4.25997 2.37321
5.12963 4.25997 2.47197
5.12962 4.25997 2.57074
5.12962 4.25997 2.6695
5.12221 4.16063 0.200368
5.12221 4.16063 0.299134
5.1222 4.16063 0.397899
5.12219 4.16063 0.496665
5.12218 4.16063 0.59543
5.12217 4.16063 0.694195
5.12217 4.16063 0.792961
5.12216 4.16063 0.891726
5.12215 4.16063 0.990492
5.12214 4.16063 1.08926
5.12214 4.16063 1.18802
5.12213 4.16063 1.28679
5.12212 4.16063 1.38555
5.12211 4.16063 1.48432
5.1221 4.16063 1.58308
5.1221 4.16064 1.68185
5.12209 4.16064 1.78062
5.12208 4.16064 1.87938
5.12207 4.16064 1.97815
5.12207 4.16064 2.07691
5.12206 4.16064 2.17568
5.12205 4.16064 2.27444
5.12204 4.16064 2.37321
5.12204 4.16064 2.47197
5.12203 4.16064 2.57074
5.12202 4.16064 2.6695
5.11462 4.0613 0.200368
5.11461 4.0613 0.299134
5.1146 4.0613 0.397899
5.11459 4.0613 0.496664
5.11459 4.0613 0.59543
5.11458 4.0613 0.694195
5.11457 4.0613 0.792961
5.11456 4.0613 0.891726
5.11456 4.0613 0.990492
5.11455 4.06131 1.08926
5.11454 4.06131 1.18802
5.11453 4.06131 1.28679
5.11453 4.06131 1.38555
5.11452 4.06131 1.48432
5.11451 4.06131 1.58308
5.1145 4.06131 1.68185
5.11449 4.06131 1.78062
5.11449 4.06131 1.87938
5.11448 4.06131 1.97815
5.11447 4.06131 2.07691
5.11446 4.06131 2.17568
5.11446 4.06131 2.27444
5.11445 4.06131 2.37321
5.11444 4.06131 2.47197
5.11443 4.06131 2.57074
5.11443 4.06131 2.6695
5.10702 3.96197 0.200368
5.10702 3.96198 0.299134
5.10701 3.96198 0.397899
5.107 3.96198 0.496664
5.10699 3.96198 0.59543
5.10698 3.96198 0.694195
5.10698 3.96198 0.792961
5.10697 3.96198 0.891726
5.10696 3.96198 0.990492
5.10695 3.96198 1.08926
5.10695 3.96198 1.18802
5.10694 3.96198 1.28679
5.10693 3.96198 1.38555
5.10692 3.96198 1.48432
5.10692 3.96198 1.58308
5.10691 3.96198 1.68185
5.1069 3.96198 1.78061
5.10689 3.96198 1.87938
5.10688 3.96198 1.97815
5.10688 3.96198 2.07691
5.10687 3.96198 2.17568
5.10686 3.96198 2.27444
5.10685 3.96199 2.37321
5.10685 3.96199 2.47197
5.10684 3.96199 2.57074
5.10683 3.96199 2.6695
5.09943 3.86265 0.200368
5.09942 3.86265 0.299133
5.09941 3.86265 0.397899
5.0994 3.86265 0.496664
5.0994 3.86265 0.59543
5.09939 3.86265 0.694195
5.09938 3.86265 0.792961
5.09937 3.86265 0.891726
5.09937 3.86265 0.990491
5.09936 3.86265 1.08926
5.09935 3.86265 1.18802
5.09934 3.86265 1.28679
5.09934 3.86265 1.38555
5.09933 3.86265 1.48432
5.09932 3.86265 1.58308
5.09931 3.86265 1.68185
5.0993 3.86266 1.78061
5.0993 3.86266 1.87938
5.09929 3.86266 1.97815
5.09928 3.86266 2.07691
5.09927 3.86266 2.17568
5.09927 3.86266 2.27444
5.09926 3.86266 2.37321
5.09925 3.86266 2.47197
5.09924 3.86266 2.57074
5.09924 3.86266 2.6695
5.09183 3.76332 0.200368
5.09183 3.76332 0.299133
5.09182 3.76332 0.397899
5.09181 3.76332 0.496664
