ply
format ascii 1.0
comment Created by Open3D
element vertex 1889
property double x
property double y
property double z
end_header
6.29146 -2.92726 0.219987
6.28828 -3.02683 0.219988
6.2851 -3.12639 0.219989
6.28192 -3.22596 0.219989
6.27874 -3.32552 0.21999
6.27556 -3.42509 0.219991
6.27237 -3.52466 0.219991
6.26919 -3.62422 0.219992
6.26601 -3.72379 0.219993
6.26283 -3.82335 0.219994
6.25965 -3.92292 0.219994
6.25647 -4.02249 0.219995
6.25329 -4.12205 0.219996
6.25011 -4.22162 0.219996
6.24692 -4.32119 0.219997
6.24374 -4.42075 0.219998
6.24056 -4.52032 0.219999
6.23738 -4.61988 0.219999
6.2342 -4.71945 0.22
6.23102 -4.81901 0.220001
6.22784 -4.91858 0.220001
6.22466 -5.01815 0.220002
6.22147 -5.11771 0.220003
6.21829 -5.21728 0.220004
6.21511 -5.31685 0.220004
6.21193 -5.41641 0.220005
6.20875 -5.51598 0.220006
6.20557 -5.61554 0.220006
6.20239 -5.71511 0.220007
6.19921 -5.81467 0.220008
6.19602 -5.91424 0.220009
6.19284 -6.01381 0.220009
6.18966 -6.11337 0.22001
6.18648 -6.21294 0.220011
6.1833 -6.31251 0.220011
6.18012 -6.41207 0.220012
6.17694 -6.51164 0.220013
6.17376 -6.6112 0.220014
6.17058 -6.71077 0.220014
6.16739 -6.81034 0.220015
6.16421 -6.9099 0.220016
6.16103 -7.00947 0.220016
6.15785 -7.10903 0.220017
6.15467 -7.2086 0.220018
6.15149 -7.30817 0.220019
6.14831 -7.40773 0.220019
6.14513 -7.5073 0.22002
6.14194 -7.60686 0.220021
6.13876 -7.70643 0.220021
6.13558 -7.806 0.220022
6.71869 7.32486 0.219913
6.71551 7.2253 0.219914
6.71233 7.12573 0.219915
6.70915 7.02616 0.219915
6.70597 6.9266 0.219916
6.70279 6.82703 0.219917
6.69961 6.72747 0.219918
6.69642 6.6279 0.219918
6.69324 6.52833 0.219919
6.69006 6.42877 0.21992
6.68688 6.3292 0.21992
6.6837 6.22964 0.219921
6.68052 6.13007 0.219922
6.67734 6.0305 0.219923
6.67416 5.93094 0.219923
6.67097 5.83137 0.219924
6.66779 5.7318 0.219925
6.66461 5.63224 0.219925
6.66143 5.53267 0.219926
6.65825 5.43311 0.219927
6.65507 5.33354 0.219928
6.65189 5.23397 0.219928
6.64871 5.13441 0.219929
6.64552 5.03484 0.21993
6.64234 4.93528 0.21993
6.63916 4.83571 0.219931
6.63598 4.73614 0.219932
6.6328 4.63658 0.219933
6.62962 4.53701 0.219933
6.62644 4.43745 0.219934
6.62326 4.33788 0.219935
6.62008 4.23831 0.219935
6.61689 4.13875 0.219936
6.61371 4.03918 0.219937
6.61053 3.93962 0.219938
6.60735 3.84005 0.219938
6.60417 3.74048 0.219939
6.60099 3.64092 0.21994
6.59781 3.54135 0.21994
6.59463 3.44179 0.219941
6.59144 3.34222 0.219942
6.58826 3.24265 0.219942
6.58508 3.14309 0.219943
6.5819 3.04352 0.219944
6.57872 2.94396 0.219945
6.57554 2.84439 0.219945
6.57236 2.74482 0.219946
6.56918 2.64526 0.219947
6.56599 2.54569 0.219947
6.56281 2.44613 0.219948
6.55963 2.34656 0.219949
6.55645 2.24699 0.21995
6.55327 2.14743 0.21995
6.55009 2.04786 0.219951
6.54691 1.9483 0.219952
6.54373 1.84873 0.219952
6.54054 1.74916 0.219953
6.53736 1.6496 0.219954
6.53418 1.55003 0.219955
6.531 1.45047 0.219955
6.52782 1.3509 0.219956
6.52464 1.25133 0.219957
6.52146 1.15177 0.219957
6.51828 1.0522 0.219958
6.5151 0.952635 0.219959
6.51191 0.853069 0.21996
6.50873 0.753503 0.21996
6.50555 0.653936 0.219961
6.50237 0.55437 0.219962
6.49919 0.454804 0.219962
6.49601 0.355239 0.219963
6.49283 0.255673 0.219964
6.48965 0.156106 0.219965
6.48646 0.0565402 0.219965
6.48328 -0.043026 0.219966
6.4801 -0.142592 0.219967
6.47692 -0.242158 0.219967
6.47374 -0.341724 0.219968
6.47056 -0.44129 0.219969
6.46738 -0.540856 0.21997
6.4642 -0.640422 0.21997
6.46101 -0.739988 0.219971
6.45783 -0.839555 0.219972
6.45465 -0.93912 0.219972
6.45147 -1.03869 0.219973
6.44829 -1.13825 0.219974
6.44511 -1.23782 0.219975
6.44193 -1.33738 0.219975
6.43875 -1.43695 0.219976
6.43556 -1.53652 0.219977
6.43238 -1.63608 0.219977
6.4292 -1.73565 0.219978
6.42602 -1.83521 0.219979
6.42284 -1.93478 0.21998
6.41966 -2.03435 0.21998
6.41648 -2.13391 0.219981
6.4133 -2.23348 0.219982
6.41011 -2.33304 0.219982
6.40693 -2.43261 0.219983
6.40375 -2.53218 0.219984
6.40057 -2.63174 0.219985
6.39739 -2.73131 0.219985
6.39421 -2.83087 0.219986
6.39103 -2.93044 0.219987
6.38785 -3.03001 0.219987
6.38467 -3.12957 0.219988
6.38148 -3.22914 0.219989
6.3783 -3.3287 0.219989
6.37512 -3.42827 0.21999
6.37194 -3.52784 0.219991
6.36876 -3.6274 0.219992
6.36558 -3.72697 0.219992
6.3624 -3.82654 0.219993
6.35922 -3.9261 0.219994
6.35603 -4.02567 0.219994
6.35285 -4.12523 0.219995
6.34967 -4.2248 0.219996
6.34649 -4.32437 0.219997
6.34331 -4.42393 0.219997
6.34013 -4.5235 0.219998
6.33695 -4.62306 0.219999
6.33377 -4.72263 0.219999
6.33058 -4.8222 0.22
6.3274 -4.92176 0.220001
6.32422 -5.02133 0.220002
6.32104 -5.12089 0.220002
6.31786 -5.22046 0.220003
6.31468 -5.32003 0.220004
6.3115 -5.41959 0.220004
6.30832 -5.51916 0.220005
6.30513 -5.61873 0.220006
6.30195 -5.71829 0.220007
6.29877 -5.81786 0.220007
6.29559 -5.91742 0.220008
6.29241 -6.01699 0.220009
6.28923 -6.11655 0.220009
6.28605 -6.21612 0.22001
6.28287 -6.31569 0.220011
6.27968 -6.41525 0.220012
6.2765 -6.51482 0.220012
6.27332 -6.61439 0.220013
6.27014 -6.71395 0.220014
6.26696 -6.81352 0.220014
6.26378 -6.91308 0.220015
6.2606 -7.01265 0.220016
6.25742 -7.11221 0.220017
6.25424 -7.21178 0.220017
6.25105 -7.31135 0.220018
6.24787 -7.41091 0.220019
6.24469 -7.51048 0.220019
6.24151 -7.61005 0.22002
6.23833 -7.70961 0.220021
6.23515 -7.80918 0.220022
6.81508 7.22211 0.219913
6.8119 7.12255 0.219914
6.80872 7.02298 0.219915
6.80553 6.92342 0.219916
6.80235 6.82385 0.219916
6.79917 6.72428 0.219917
6.79599 6.62472 0.219918
6.79281 6.52515 0.219918
6.78963 6.42559 0.219919
6.78645 6.32602 0.21992
6.78327 6.22645 0.219921
6.78008 6.12689 0.219921
6.7769 6.02732 0.219922
6.77372 5.92776 0.219923
6.77054 5.82819 0.219923
6.76736 5.72862 0.219924
6.76418 5.62906 0.219925
6.761 5.52949 0.219926
6.75782 5.42993 0.219926
6.75463 5.33036 0.219927
6.75145 5.23079 0.219928
6.74827 5.13123 0.219928
6.74509 5.03166 0.219929
6.74191 4.9321 0.21993
6.73873 4.83253 0.219931
6.73555 4.73296 0.219931
6.73237 4.6334 0.219932
6.72919 4.53383 0.219933
6.726 4.43426 0.219933
6.72282 4.3347 0.219934
6.71964 4.23513 0.219935
6.71646 4.13557 0.219936
6.71328 4.036 0.219936
6.7101 3.93643 0.219937
6.70692 3.83687 0.219938
6.70374 3.7373 0.219938
6.70055 3.63774 0.219939
6.69737 3.53817 0.21994
6.69419 3.4386 0.219941
6.69101 3.33904 0.219941
6.68783 3.23947 0.219942
6.68465 3.13991 0.219943
6.68147 3.04034 0.219943
6.67829 2.94077 0.219944
6.6751 2.84121 0.219945
6.67192 2.74164 0.219945
6.66874 2.64208 0.219946
6.66556 2.54251 0.219947
6.66238 2.44294 0.219948
6.6592 2.34338 0.219948
6.65602 2.24381 0.219949
6.65284 2.14425 0.21995
6.64965 2.04468 0.21995
6.64647 1.94511 0.219951
6.64329 1.84555 0.219952
6.64011 1.74598 0.219953
6.63693 1.64642 0.219953
6.63375 1.54685 0.219954
6.63057 1.44728 0.219955
6.62739 1.34772 0.219955
6.6242 1.24815 0.219956
6.62102 1.14859 0.219957
6.61784 1.04902 0.219958
6.61466 0.949454 0.219958
6.61148 0.849888 0.219959
6.6083 0.750321 0.21996
6.60512 0.650755 0.21996
6.60194 0.551189 0.219961
6.59876 0.451623 0.219962
6.59557 0.352058 0.219963
6.59239 0.252491 0.219963
6.58921 0.152925 0.219964
6.58603 0.053359 0.219965
6.58285 -0.0462072 0.219965
6.57967 -0.145773 0.219966
6.57649 -0.24534 0.219967
6.57331 -0.344905 0.219968
6.57012 -0.444471 0.219968
6.56694 -0.544037 0.219969
6.56376 -0.643603 0.21997
6.56058 -0.74317 0.21997
6.5574 -0.842736 0.219971
6.55422 -0.942301 0.219972
6.55104 -1.04187 0.219973
6.54786 -1.14143 0.219973
6.54467 -1.241 0.219974
6.54149 -1.34057 0.219975
6.53831 -1.44013 0.219975
6.53513 -1.5397 0.219976
6.53195 -1.63926 0.219977
6.52877 -1.73883 0.219978
6.52559 -1.8384 0.219978
6.52241 -1.93796 0.219979
6.51922 -2.03753 0.21998
6.51604 -2.13709 0.21998
6.51286 -2.23666 0.219981
6.50968 -2.33623 0.219982
6.5065 -2.43579 0.219983
6.50332 -2.53536 0.219983
6.50014 -2.63492 0.219984
6.49696 -2.73449 0.219985
6.49377 -2.83406 0.219985
6.49059 -2.93362 0.219986
6.48741 -3.03319 0.219987
6.48423 -3.13275 0.219988
6.48105 -3.23232 0.219988
6.47787 -3.33189 0.219989
6.47469 -3.43145 0.21999
6.47151 -3.53102 0.21999
6.46833 -3.63058 0.219991
6.46514 -3.73015 0.219992
6.46196 -3.82972 0.219993
6.45878 -3.92928 0.219993
6.4556 -4.02885 0.219994
6.45242 -4.12842 0.219995
6.44924 -4.22798 0.219995
6.44606 -4.32755 0.219996
6.44288 -4.42711 0.219997
6.43969 -4.52668 0.219997
6.43651 -4.62624 0.219998
6.43333 -4.72581 0.219999
6.43015 -4.82538 0.22
6.42697 -4.92494 0.22
6.42379 -5.02451 0.220001
6.42061 -5.12408 0.220002
6.41743 -5.22364 0.220002
6.41424 -5.32321 0.220003
6.41106 -5.42277 0.220004
6.40788 -5.52234 0.220005
6.4047 -5.62191 0.220005
6.40152 -5.72147 0.220006
6.39834 -5.82104 0.220007
6.39516 -5.9206 0.220007
6.39198 -6.02017 0.220008
6.38879 -6.11974 0.220009
6.38561 -6.2193 0.22001
6.38243 -6.31887 0.22001
6.37925 -6.41843 0.220011
6.37607 -6.518 0.220012
6.37289 -6.61757 0.220012
6.36971 -6.71713 0.220013
6.36653 -6.8167 0.220014
6.36334 -6.91627 0.220015
6.36016 -7.01583 0.220015
6.35698 -7.1154 0.220016
6.3538 -7.21496 0.220017
6.35062 -7.31453 0.220017
6.34744 -7.41409 0.220018
6.34426 -7.51366 0.220019
6.34108 -7.61323 0.22002
6.3379 -7.71279 0.22002
6.91464 7.21893 0.219913
6.91146 7.11937 0.219914
6.90828 7.0198 0.219914
6.9051 6.92023 0.219915
6.90192 6.82067 0.219916
6.89874 6.7211 0.219916
6.89556 6.62154 0.219917
6.89238 6.52197 0.219918
6.88919 6.4224 0.219919
6.88601 6.32284 0.219919
6.88283 6.22327 0.21992
6.87965 6.12371 0.219921
6.87647 6.02414 0.219921
6.87329 5.92457 0.219922
6.87011 5.82501 0.219923
6.86693 5.72544 0.219924
6.86374 5.62588 0.219924
6.86056 5.52631 0.219925
6.85738 5.42674 0.219926
6.8542 5.32718 0.219926
6.85102 5.22761 0.219927
6.84784 5.12805 0.219928
6.84466 5.02848 0.219929
6.84148 4.92891 0.219929
6.83829 4.82935 0.21993
6.83511 4.72978 0.219931
6.83193 4.63022 0.219931
6.82875 4.53065 0.219932
6.82557 4.43108 0.219933
6.82239 4.33152 0.219934
6.81921 4.23195 0.219934
6.81603 4.13239 0.219935
6.81285 4.03282 0.219936
6.80966 3.93325 0.219936
6.80648 3.83369 0.219937
6.8033 3.73412 0.219938
6.80012 3.63456 0.219939
6.79694 3.53499 0.219939
6.79376 3.43542 0.21994
6.79058 3.33586 0.219941
6.7874 3.23629 0.219941
6.78421 3.13673 0.219942
6.78103 3.03716 0.219943
6.77785 2.93759 0.219944
6.77467 2.83803 0.219944
6.77149 2.73846 0.219945
6.76831 2.6389 0.219946
6.76513 2.53933 0.219946
6.76195 2.43976 0.219947
6.75876 2.3402 0.219948
6.75558 2.24063 0.219949
6.7524 2.14106 0.219949
6.74922 2.0415 0.21995
6.74604 1.94193 0.219951
6.74286 1.84237 0.219951
6.73968 1.7428 0.219952
6.7365 1.64324 0.219953
6.73331 1.54367 0.219953
6.73013 1.4441 0.219954
6.72695 1.34454 0.219955
6.72377 1.24497 0.219956
6.72059 1.1454 0.219956
6.71741 1.04584 0.219957
6.71423 0.946273 0.219958
6.71105 0.846706 0.219958
6.70787 0.74714 0.219959
6.70468 0.647574 0.21996
6.7015 0.548008 0.219961
6.69832 0.448442 0.219961
6.69514 0.348876 0.219962
6.69196 0.24931 0.219963
6.68878 0.149744 0.219963
6.6856 0.0501777 0.219964
6.68242 -0.0493884 0.219965
6.67923 -0.148955 0.219966
6.67605 -0.248521 0.219966
6.67287 -0.348086 0.219967
6.66969 -0.447652 0.219968
6.66651 -0.547218 0.219968
6.66333 -0.646785 0.219969
6.66015 -0.746351 0.21997
6.65697 -0.845917 0.219971
6.65378 -0.945482 0.219971
6.6506 -1.04505 0.219972
6.64742 -1.14461 0.219973
6.64424 -1.24418 0.219973
6.64106 -1.34375 0.219974
6.63788 -1.44331 0.219975
6.6347 -1.54288 0.219976
6.63152 -1.64244 0.219976
6.62833 -1.74201 0.219977
6.62515 -1.84158 0.219978
6.62197 -1.94114 0.219978
6.61879 -2.04071 0.219979
6.61561 -2.14028 0.21998
6.61243 -2.23984 0.219981
6.60925 -2.33941 0.219981
6.60607 -2.43897 0.219982
6.60288 -2.53854 0.219983
6.5997 -2.63811 0.219983
6.59652 -2.73767 0.219984
6.59334 -2.83724 0.219985
6.59016 -2.9368 0.219986
6.58698 -3.03637 0.219986
6.5838 -3.13594 0.219987
6.58062 -3.2355 0.219988
6.57744 -3.33507 0.219988
6.57425 -3.43463 0.219989
6.57107 -3.5342 0.21999
6.56789 -3.63377 0.219991
6.56471 -3.73333 0.219991
6.56153 -3.8329 0.219992
6.55835 -3.93246 0.219993
6.55517 -4.03203 0.219993
6.55199 -4.1316 0.219994
6.5488 -4.23116 0.219995
6.54562 -4.33073 0.219996
6.54244 -4.43029 0.219996
6.53926 -4.52986 0.219997
6.53608 -4.62943 0.219998
6.5329 -4.72899 0.219998
6.52972 -4.82856 0.219999
6.52654 -4.92812 0.22
6.52335 -5.02769 0.22
6.52017 -5.12726 0.220001
6.51699 -5.22682 0.220002
6.51381 -5.32639 0.220003
6.51063 -5.42596 0.220003
6.50745 -5.52552 0.220004
6.50427 -5.62509 0.220005
6.50109 -5.72465 0.220005
6.4979 -5.82422 0.220006
6.49472 -5.92378 0.220007
6.49154 -6.02335 0.220008
6.48836 -6.12292 0.220008
6.48518 -6.22248 0.220009
6.482 -6.32205 0.22001
6.47882 -6.42162 0.22001
6.47564 -6.52118 0.220011
6.47245 -6.62075 0.220012
6.46927 -6.72031 0.220013
6.46609 -6.81988 0.220013
6.46291 -6.91945 0.220014
6.45973 -7.01901 0.220015
6.45655 -7.11858 0.220015
6.45337 -7.21814 0.220016
6.45019 -7.31771 0.220017
6.44701 -7.41728 0.220018
6.44382 -7.51684 0.220018
6.44064 -7.61641 0.220019
7.01103 7.11619 0.219913
7.00785 7.01662 0.219914
7.00467 6.91705 0.219914
7.00149 6.81749 0.219915
6.9983 6.71792 0.219916
6.99512 6.61836 0.219917
6.99194 6.51879 0.219917
6.98876 6.41922 0.219918
6.98558 6.31966 0.219919
6.9824 6.22009 0.219919
6.97922 6.12053 0.21992
6.97604 6.02096 0.219921
6.97285 5.92139 0.219922
6.96967 5.82183 0.219922
6.96649 5.72226 0.219923
6.96331 5.62269 0.219924
6.96013 5.52313 0.219924
6.95695 5.42356 0.219925
6.95377 5.324 0.219926
6.95059 5.22443 0.219927
6.9474 5.12486 0.219927
6.94422 5.0253 0.219928
6.94104 4.92573 0.219929
6.93786 4.82617 0.219929
6.93468 4.7266 0.21993
6.9315 4.62703 0.219931
6.92832 4.52747 0.219932
6.92514 4.4279 0.219932
6.92196 4.32834 0.219933
6.91877 4.22877 0.219934
6.91559 4.1292 0.219934
6.91241 4.02964 0.219935
6.90923 3.93007 0.219936
6.90605 3.83051 0.219937
6.90287 3.73094 0.219937
6.89969 3.63137 0.219938
6.89651 3.53181 0.219939
6.89332 3.43224 0.219939
6.89014 3.33268 0.21994
6.88696 3.23311 0.219941
6.88378 3.13354 0.219942
6.8806 3.03398 0.219942
6.87742 2.93441 0.219943
6.87424 2.83485 0.219944
6.87106 2.73528 0.219944
6.86787 2.63571 0.219945
6.86469 2.53615 0.219946
6.86151 2.43658 0.219947
6.85833 2.33702 0.219947
6.85515 2.23745 0.219948
6.85197 2.13788 0.219949
6.84879 2.03832 0.219949
6.84561 1.93875 0.21995
6.84242 1.83919 0.219951
6.83924 1.73962 0.219952
6.83606 1.64005 0.219952
6.83288 1.54049 0.219953
6.8297 1.44092 0.219954
6.82652 1.34136 0.219954
6.82334 1.24179 0.219955
6.82016 1.14222 0.219956
6.81697 1.04266 0.219957
6.81379 0.943091 0.219957
6.81061 0.843525 0.219958
6.80743 0.743959 0.219959
6.80425 0.644393 0.219959
6.80107 0.544827 0.21996
6.79789 0.44526 0.219961
6.79471 0.345695 0.219961
6.79153 0.246129 0.219962
6.78834 0.146563 0.219963
6.78516 0.0469965 0.219964
6.78198 -0.0525697 0.219964
6.7788 -0.152136 0.219965
6.77562 -0.251702 0.219966
6.77244 -0.351267 0.219966
6.76926 -0.450834 0.219967
6.76608 -0.5504 0.219968
6.76289 -0.649966 0.219969
6.75971 -0.749532 0.219969
6.75653 -0.849098 0.21997
6.75335 -0.948664 0.219971
6.75017 -1.04823 0.219971
6.74699 -1.1478 0.219972
6.74381 -1.24736 0.219973
6.74063 -1.34693 0.219974
6.73744 -1.44649 0.219974
6.73426 -1.54606 0.219975
6.73108 -1.64563 0.219976
6.7279 -1.74519 0.219976
6.72472 -1.84476 0.219977
6.72154 -1.94432 0.219978
6.71836 -2.04389 0.219979
6.71518 -2.14346 0.219979
6.71199 -2.24302 0.21998
6.70881 -2.34259 0.219981
6.70563 -2.44215 0.219981
6.70245 -2.54172 0.219982
6.69927 -2.64129 0.219983
6.69609 -2.74085 0.219984
6.69291 -2.84042 0.219984
6.68973 -2.93998 0.219985
6.68654 -3.03955 0.219986
6.68336 -3.13912 0.219986
6.68018 -3.23868 0.219987
6.677 -3.33825 0.219988
6.67382 -3.43781 0.219989
6.67064 -3.53738 0.219989
6.66746 -3.63695 0.21999
6.66428 -3.73651 0.219991
6.6611 -3.83608 0.219991
6.65791 -3.93565 0.219992
6.65473 -4.03521 0.219993
6.65155 -4.13478 0.219994
6.64837 -4.23434 0.219994
6.64519 -4.33391 0.219995
6.64201 -4.43347 0.219996
6.63883 -4.53304 0.219996
6.63565 -4.63261 0.219997
6.63246 -4.73217 0.219998
6.62928 -4.83174 0.219999
6.6261 -4.93131 0.219999
6.62292 -5.03087 0.22
6.61974 -5.13044 0.220001
6.61656 -5.23 0.220001
6.61338 -5.32957 0.220002
6.6102 -5.42914 0.220003
6.60701 -5.5287 0.220004
6.60383 -5.62827 0.220004
6.60065 -5.72783 0.220005
6.59747 -5.8274 0.220006
6.59429 -5.92697 0.220006
6.59111 -6.02653 0.220007
6.58793 -6.1261 0.220008
6.58475 -6.22566 0.220008
6.58156 -6.32523 0.220009
6.57838 -6.4248 0.22001
6.5752 -6.52436 0.220011
6.57202 -6.62393 0.220011
6.56884 -6.7235 0.220012
6.56566 -6.82306 0.220013
6.56248 -6.92263 0.220013
6.5593 -7.02219 0.220014
6.55612 -7.12176 0.220015
6.55293 -7.22132 0.220016
6.54975 -7.32089 0.220016
6.54657 -7.42046 0.220017
6.54339 -7.52002 0.220018
7.10741 7.01344 0.219913
7.10423 6.91387 0.219914
7.10105 6.81431 0.219915
7.09787 6.71474 0.219915
7.09469 6.61517 0.219916
7.09151 6.51561 0.219917
7.08833 6.41604 0.219918
7.08515 6.31648 0.219918
7.08196 6.21691 0.219919
7.07878 6.11734 0.21992
7.0756 6.01778 0.21992
7.07242 5.91821 0.219921
7.06924 5.81865 0.219922
7.06606 5.71908 0.219922
7.06288 5.61951 0.219923
7.0597 5.51995 0.219924
7.05651 5.42038 0.219925
7.05333 5.32082 0.219925
7.05015 5.22125 0.219926
7.04697 5.12168 0.219927
7.04379 5.02212 0.219927
7.04061 4.92255 0.219928
7.03743 4.82299 0.219929
7.03425 4.72342 0.21993
7.03106 4.62385 0.21993
7.02788 4.52429 0.219931
7.0247 4.42472 0.219932
7.02152 4.32516 0.219932
7.01834 4.22559 0.219933
7.01516 4.12602 0.219934
7.01198 4.02646 0.219935
7.0088 3.92689 0.219935
7.00562 3.82733 0.219936
7.00243 3.72776 0.219937
6.99925 3.62819 0.219937
6.99607 3.52863 0.219938
6.99289 3.42906 0.219939
6.98971 3.3295 0.21994
6.98653 3.22993 0.21994
6.98335 3.13036 0.219941
6.98017 3.0308 0.219942
6.97698 2.93123 0.219942
6.9738 2.83166 0.219943
6.97062 2.7321 0.219944
6.96744 2.63253 0.219945
6.96426 2.53297 0.219945
6.96108 2.4334 0.219946
6.9579 2.33383 0.219947
6.95472 2.23427 0.219947
6.95153 2.1347 0.219948
6.94835 2.03514 0.219949
6.94517 1.93557 0.21995
6.94199 1.836 0.21995
6.93881 1.73644 0.219951
6.93563 1.63687 0.219952
6.93245 1.53731 0.219952
6.92927 1.43774 0.219953
6.92608 1.33817 0.219954
6.9229 1.23861 0.219955
6.91972 1.13904 0.219955
6.91654 1.03948 0.219956
6.91336 0.93991 0.219957
6.91018 0.840344 0.219957
6.907 0.740778 0.219958
6.90382 0.641212 0.219959
6.90063 0.541645 0.21996
6.89745 0.442079 0.21996
6.89427 0.342514 0.219961
6.89109 0.242948 0.219962
6.88791 0.143382 0.219962
6.88473 0.0438153 0.219963
6.88155 -0.0557509 0.219964
6.87837 -0.155317 0.219965
6.87519 -0.254883 0.219965
6.872 -0.354449 0.219966
6.86882 -0.454015 0.219967
6.86564 -0.553581 0.219967
6.86246 -0.653147 0.219968
6.85928 -0.752713 0.219969
6.8561 -0.85228 0.219969
6.85292 -0.951845 0.21997
6.84974 -1.05141 0.219971
6.84655 -1.15098 0.219972
6.84337 -1.25054 0.219972
6.84019 -1.35011 0.219973
6.83701 -1.44968 0.219974
6.83383 -1.54924 0.219974
6.83065 -1.64881 0.219975
6.82747 -1.74837 0.219976
6.82429 -1.84794 0.219977
6.8211 -1.94751 0.219977
6.81792 -2.04707 0.219978
6.81474 -2.14664 0.219979
6.81156 -2.2462 0.219979
6.80838 -2.34577 0.21998
6.8052 -2.44534 0.219981
6.80202 -2.5449 0.219982
6.79884 -2.64447 0.219982
6.79565 -2.74403 0.219983
6.79247 -2.8436 0.219984
6.78929 -2.94317 0.219984
6.78611 -3.04273 0.219985
6.78293 -3.1423 0.219986
6.77975 -3.24186 0.219987
6.77657 -3.34143 0.219987
6.77339 -3.441 0.219988
6.77021 -3.54056 0.219989
6.76702 -3.64013 0.219989
6.76384 -3.73969 0.21999
6.76066 -3.83926 0.219991
6.75748 -3.93883 0.219992
6.7543 -4.03839 0.219992
6.75112 -4.13796 0.219993
6.74794 -4.23753 0.219994
6.74476 -4.33709 0.219994
6.74157 -4.43666 0.219995
6.73839 -4.53622 0.219996
6.73521 -4.63579 0.219997
6.73203 -4.73535 0.219997
6.72885 -4.83492 0.219998
6.72567 -4.93449 0.219999
6.72249 -5.03405 0.219999
6.71931 -5.13362 0.22
6.71612 -5.23319 0.220001
6.71294 -5.33275 0.220002
6.70976 -5.43232 0.220002
6.70658 -5.53188 0.220003
6.7034 -5.63145 0.220004
6.70022 -5.73101 0.220004
6.69704 -5.83058 0.220005
6.69386 -5.93015 0.220006
6.69067 -6.02971 0.220007
6.68749 -6.12928 0.220007
6.68431 -6.22885 0.220008
6.68113 -6.32841 0.220009
6.67795 -6.42798 0.220009
6.67477 -6.52754 0.22001
6.67159 -6.62711 0.220011
6.66841 -6.72668 0.220012
6.66522 -6.82624 0.220012
6.66204 -6.92581 0.220013
6.65886 -7.02537 0.220014
6.65568 -7.12494 0.220014
6.6525 -7.22451 0.220015
6.64932 -7.32407 0.220016
6.64614 -7.42364 0.220016
7.2038 6.91069 0.219913
7.20062 6.81113 0.219914
7.19743 6.71156 0.219915
7.19425 6.61199 0.219916
7.19107 6.51243 0.219916
7.18789 6.41286 0.219917
7.18471 6.3133 0.219918
7.18153 6.21373 0.219918
7.17835 6.11416 0.219919
7.17517 6.0146 0.21992
7.17199 5.91503 0.219921
7.1688 5.81546 0.219921
7.16562 5.7159 0.219922
7.16244 5.61633 0.219923
7.15926 5.51677 0.219923
7.15608 5.4172 0.219924
7.1529 5.31763 0.219925
7.14972 5.21807 0.219925
7.14654 5.1185 0.219926
7.14335 5.01894 0.219927
7.14017 4.91937 0.219928
7.13699 4.8198 0.219928
7.13381 4.72024 0.219929
7.13063 4.62067 0.21993
7.12745 4.52111 0.21993
7.12427 4.42154 0.219931
7.12109 4.32197 0.219932
7.1179 4.22241 0.219933
7.11472 4.12284 0.219933
7.11154 4.02328 0.219934
7.10836 3.92371 0.219935
7.10518 3.82414 0.219935
7.102 3.72458 0.219936
7.09882 3.62501 0.219937
7.09564 3.52545 0.219938
7.09245 3.42588 0.219938
7.08927 3.32631 0.219939
7.08609 3.22675 0.21994
7.08291 3.12718 0.21994
7.07973 3.02762 0.219941
7.07655 2.92805 0.219942
7.07337 2.82848 0.219943
7.07019 2.72892 0.219943
7.067 2.62935 0.219944
7.06382 2.52979 0.219945
7.06064 2.43022 0.219945
7.05746 2.33065 0.219946
7.05428 2.23109 0.219947
7.0511 2.13152 0.219948
7.04792 2.03196 0.219948
7.04474 1.93239 0.219949
7.04156 1.83282 0.21995
7.03837 1.73326 0.21995
7.03519 1.63369 0.219951
7.03201 1.53413 0.219952
7.02883 1.43456 0.219953
7.02565 1.33499 0.219953
7.02247 1.23543 0.219954
7.01929 1.13586 0.219955
7.01611 1.03629 0.219955
7.01292 0.936729 0.219956
7.00974 0.837163 0.219957
7.00656 0.737597 0.219958
7.00338 0.63803 0.219958
7.0002 0.538464 0.219959
6.99702 0.438898 0.21996
6.99384 0.339333 0.21996
6.99066 0.239767 0.219961
6.98747 0.1402 0.219962
6.98429 0.0406341 0.219963
6.98111 -0.0589321 0.219963
6.97793 -0.158498 0.219964
6.97475 -0.258064 0.219965
6.97157 -0.35763 0.219965
6.96839 -0.457196 0.219966
6.96521 -0.556762 0.219967
6.96202 -0.656328 0.219968
6.95884 -0.755894 0.219968
6.95566 -0.855461 0.219969
6.95248 -0.955026 0.21997
6.9493 -1.05459 0.21997
6.94612 -1.15416 0.219971
6.94294 -1.25372 0.219972
6.93976 -1.35329 0.219972
6.93657 -1.45286 0.219973
6.93339 -1.55242 0.219974
6.93021 -1.65199 0.219975
6.92703 -1.75155 0.219975
6.92385 -1.85112 0.219976
6.92067 -1.95069 0.219977
6.91749 -2.05025 0.219977
6.91431 -2.14982 0.219978
6.91113 -2.24938 0.219979
6.90794 -2.34895 0.21998
6.90476 -2.44852 0.21998
6.90158 -2.54808 0.219981
6.8984 -2.64765 0.219982
6.89522 -2.74722 0.219982
6.89204 -2.84678 0.219983
6.88886 -2.94635 0.219984
6.88568 -3.04591 0.219985
6.88249 -3.14548 0.219985
6.87931 -3.24504 0.219986
6.87613 -3.34461 0.219987
6.87295 -3.44418 0.219987
6.86977 -3.54374 0.219988
6.86659 -3.64331 0.219989
6.86341 -3.74288 0.21999
6.86023 -3.84244 0.21999
6.85704 -3.94201 0.219991
6.85386 -4.04157 0.219992
6.85068 -4.14114 0.219992
6.8475 -4.24071 0.219993
6.84432 -4.34027 0.219994
6.84114 -4.43984 0.219995
6.83796 -4.5394 0.219995
6.83478 -4.63897 0.219996
6.83159 -4.73854 0.219997
6.82841 -4.8381 0.219997
6.82523 -4.93767 0.219998
6.82205 -5.03723 0.219999
6.81887 -5.1368 0.22
6.81569 -5.23637 0.22
6.81251 -5.33593 0.220001
6.80933 -5.4355 0.220002
6.80614 -5.53507 0.220002
6.80296 -5.63463 0.220003
6.79978 -5.7342 0.220004
6.7966 -5.83376 0.220005
6.79342 -5.93333 0.220005
6.79024 -6.03289 0.220006
6.78706 -6.13246 0.220007
6.78388 -6.23203 0.220007
6.7807 -6.33159 0.220008
6.77751 -6.43116 0.220009
6.77433 -6.53073 0.22001
6.77115 -6.63029 0.22001
6.76797 -6.72986 0.220011
6.76479 -6.82942 0.220012
6.76161 -6.92899 0.220012
6.75843 -7.02855 0.220013
6.75525 -7.12812 0.220014
6.75206 -7.22769 0.220015
6.74888 -7.32725 0.220015
7.30018 6.80794 0.219914
7.297 6.70838 0.219914
7.29382 6.60881 0.219915
7.29064 6.50925 0.219916
7.28746 6.40968 0.219916
7.28428 6.31011 0.219917
7.28109 6.21055 0.219918
7.27791 6.11098 0.219919
7.27473 6.01142 0.219919
7.27155 5.91185 0.21992
7.26837 5.81228 0.219921
7.26519 5.71272 0.219921
7.26201 5.61315 0.219922
7.25883 5.51359 0.219923
7.25565 5.41402 0.219924
7.25246 5.31445 0.219924
7.24928 5.21489 0.219925
7.2461 5.11532 0.219926
7.24292 5.01576 0.219926
7.23974 4.91619 0.219927
7.23656 4.81662 0.219928
7.23338 4.71706 0.219929
7.2302 4.61749 0.219929
7.22701 4.51793 0.21993
7.22383 4.41836 0.219931
7.22065 4.31879 0.219931
7.21747 4.21923 0.219932
7.21429 4.11966 0.219933
7.21111 4.0201 0.219933
7.20793 3.92053 0.219934
7.20475 3.82096 0.219935
7.20156 3.7214 0.219936
7.19838 3.62183 0.219936
7.1952 3.52227 0.219937
7.19202 3.4227 0.219938
7.18884 3.32313 0.219938
7.18566 3.22357 0.219939
7.18248 3.124 0.21994
7.1793 3.02443 0.219941
7.17611 2.92487 0.219941
7.17293 2.8253 0.219942
7.16975 2.72574 0.219943
7.16657 2.62617 0.219943
7.16339 2.5266 0.219944
7.16021 2.42704 0.219945
7.15703 2.32747 0.219946
7.15385 2.22791 0.219946
7.15066 2.12834 0.219947
7.14748 2.02877 0.219948
7.1443 1.92921 0.219948
7.14112 1.82964 0.219949
7.13794 1.73008 0.21995
7.13476 1.63051 0.219951
7.13158 1.53094 0.219951
7.1284 1.43138 0.219952
7.12522 1.33181 0.219953
7.12203 1.23225 0.219953
7.11885 1.13268 0.219954
7.11567 1.03311 0.219955
7.11249 0.933548 0.219956
7.10931 0.833982 0.219956
7.10613 0.734415 0.219957
7.10295 0.634849 0.219958
7.09977 0.535283 0.219958
7.09658 0.435717 0.219959
7.0934 0.336152 0.21996
7.09022 0.236585 0.219961
7.08704 0.137019 0.219961
7.08386 0.0374529 0.219962
7.08068 -0.0621133 0.219963
7.0775 -0.161679 0.219963
7.07432 -0.261246 0.219964
7.07113 -0.360811 0.219965
7.06795 -0.460377 0.219966
7.06477 -0.559943 0.219966
7.06159 -0.65951 0.219967
7.05841 -0.759076 0.219968
7.05523 -0.858642 0.219968
7.05205 -0.958207 0.219969
7.04887 -1.05777 0.21997
7.04568 -1.15734 0.219971
7.0425 -1.25691 0.219971
7.03932 -1.35647 0.219972
7.03614 -1.45604 0.219973
7.03296 -1.5556 0.219973
7.02978 -1.65517 0.219974
7.0266 -1.75474 0.219975
7.02342 -1.8543 0.219976
7.02024 -1.95387 0.219976
7.01705 -2.05343 0.219977
7.01387 -2.153 0.219978
7.01069 -2.25257 0.219978
7.00751 -2.35213 0.219979
7.00433 -2.4517 0.21998
7.00115 -2.55126 0.21998
6.99797 -2.65083 0.219981
6.99479 -2.7504 0.219982
6.9916 -2.84996 0.219983
6.98842 -2.94953 0.219983
6.98524 -3.04909 0.219984
6.98206 -3.14866 0.219985
6.97888 -3.24823 0.219985
6.9757 -3.34779 0.219986
6.97252 -3.44736 0.219987
6.96934 -3.54692 0.219988
6.96615 -3.64649 0.219988
6.96297 -3.74606 0.219989
6.95979 -3.84562 0.21999
6.95661 -3.94519 0.21999
6.95343 -4.04476 0.219991
6.95025 -4.14432 0.219992
6.94707 -4.24389 0.219993
6.94389 -4.34345 0.219993
6.9407 -4.44302 0.219994
6.93752 -4.54258 0.219995
6.93434 -4.64215 0.219995
6.93116 -4.74172 0.219996
6.92798 -4.84128 0.219997
6.9248 -4.94085 0.219998
6.92162 -5.04042 0.219998
6.91844 -5.13998 0.219999
6.91525 -5.23955 0.22
6.91207 -5.33911 0.22
6.90889 -5.43868 0.220001
6.90571 -5.53825 0.220002
6.90253 -5.63781 0.220003
6.89935 -5.73738 0.220003
6.89617 -5.83694 0.220004
6.89299 -5.93651 0.220005
6.88981 -6.03608 0.220005
6.88662 -6.13564 0.220006
6.88344 -6.23521 0.220007
6.88026 -6.33477 0.220008
6.87708 -6.43434 0.220008
6.8739 -6.53391 0.220009
6.87072 -6.63347 0.22001
6.86754 -6.73304 0.22001
6.86436 -6.83261 0.220011
6.86117 -6.93217 0.220012
6.85799 -7.03174 0.220013
6.85481 -7.1313 0.220013
6.85163 -7.23087 0.220014
7.39657 6.7052 0.219914
7.39339 6.60563 0.219914
7.3902 6.50606 0.219915
7.38702 6.4065 0.219916
7.38384 6.30693 0.219917
7.38066 6.20737 0.219917
7.37748 6.1078 0.219918
7.3743 6.00823 0.219919
7.37112 5.90867 0.219919
7.36794 5.8091 0.21992
7.36475 5.70954 0.219921
7.36157 5.60997 0.219922
7.35839 5.5104 0.219922
7.35521 5.41084 0.219923
7.35203 5.31127 0.219924
7.34885 5.21171 0.219924
7.34567 5.11214 0.219925
7.34249 5.01257 0.219926
7.33931 4.91301 0.219927
7.33612 4.81344 0.219927
7.33294 4.71388 0.219928
7.32976 4.61431 0.219929
7.32658 4.51474 0.219929
7.3234 4.41518 0.21993
7.32022 4.31561 0.219931
7.31704 4.21605 0.219932
7.31386 4.11648 0.219932
7.31067 4.01691 0.219933
7.30749 3.91735 0.219934
7.30431 3.81778 0.219934
7.30113 3.71822 0.219935
7.29795 3.61865 0.219936
7.29477 3.51908 0.219937
7.29159 3.41952 0.219937
7.28841 3.31995 0.219938
7.28522 3.22039 0.219939
7.28204 3.12082 0.219939
7.27886 3.02125 0.21994
7.27568 2.92169 0.219941
7.2725 2.82212 0.219941
7.26932 2.72256 0.219942
7.26614 2.62299 0.219943
7.26296 2.52342 0.219944
7.25977 2.42386 0.219944
7.25659 2.32429 0.219945
7.25341 2.22473 0.219946
7.25023 2.12516 0.219946
7.24705 2.02559 0.219947
7.24387 1.92603 0.219948
7.24069 1.82646 0.219949
7.23751 1.72689 0.219949
7.23433 1.62733 0.21995
7.23114 1.52776 0.219951
7.22796 1.4282 0.219951
7.22478 1.32863 0.219952
7.2216 1.22906 0.219953
7.21842 1.1295 0.219954
7.21524 1.02993 0.219954
7.21206 0.930367 0.219955
7.20888 0.8308 0.219956
7.20569 0.731234 0.219956
7.20251 0.631668 0.219957
7.19933 0.532102 0.219958
7.19615 0.432536 0.219959
7.19297 0.33297 0.219959
7.18979 0.233404 0.21996
7.18661 0.133838 0.219961
7.18343 0.0342717 0.219961
7.18024 -0.0652945 0.219962
7.17706 -0.164861 0.219963
7.17388 -0.264427 0.219964
7.1707 -0.363992 0.219964
7.16752 -0.463558 0.219965
7.16434 -0.563125 0.219966
7.16116 -0.662691 0.219966
7.15798 -0.762257 0.219967
7.15479 -0.861823 0.219968
7.15161 -0.961388 0.219969
7.14843 -1.06095 0.219969
7.14525 -1.16052 0.21997
7.14207 -1.26009 0.219971
7.13889 -1.35965 0.219971
7.13571 -1.45922 0.219972
7.13253 -1.55879 0.219973
7.12934 -1.65835 0.219974
7.12616 -1.75792 0.219974
7.12298 -1.85748 0.219975
7.1198 -1.95705 0.219976
7.11662 -2.05662 0.219976
7.11344 -2.15618 0.219977
7.11026 -2.25575 0.219978
7.10708 -2.35531 0.219979
7.1039 -2.45488 0.219979
7.10071 -2.55445 0.21998
7.09753 -2.65401 0.219981
7.09435 -2.75358 0.219981
7.09117 -2.85314 0.219982
7.08799 -2.95271 0.219983
7.08481 -3.05228 0.219984
7.08163 -3.15184 0.219984
7.07845 -3.25141 0.219985
7.07526 -3.35097 0.219986
7.07208 -3.45054 0.219986
7.0689 -3.55011 0.219987
7.06572 -3.64967 0.219988
7.06254 -3.74924 0.219988
7.05936 -3.8488 0.219989
7.05618 -3.94837 0.21999
7.053 -4.04794 0.219991
7.04981 -4.1475 0.219991
7.04663 -4.24707 0.219992
7.04345 -4.34664 0.219993
7.04027 -4.4462 0.219993
7.03709 -4.54577 0.219994
7.03391 -4.64533 0.219995
7.03073 -4.7449 0.219996
7.02755 -4.84446 0.219996
7.02436 -4.94403 0.219997
7.02118 -5.0436 0.219998
7.018 -5.14316 0.219998
7.01482 -5.24273 0.219999
7.01164 -5.3423 0.22
7.00846 -5.44186 0.220001
7.00528 -5.54143 0.220001
7.0021 -5.64099 0.220002
6.99891 -5.74056 0.220003
6.99573 -5.84012 0.220003
6.99255 -5.93969 0.220004
6.98937 -6.03926 0.220005
6.98619 -6.13882 0.220006
6.98301 -6.23839 0.220006
6.97983 -6.33796 0.220007
6.97665 -6.43752 0.220008
6.97347 -6.53709 0.220008
6.97028 -6.63665 0.220009
6.9671 -6.73622 0.22001
6.96392 -6.83579 0.220011
6.96074 -6.93535 0.220011
6.95756 -7.03492 0.220012
6.95438 -7.13448 0.220013
7.49295 6.60245 0.219914
7.48977 6.50288 0.219915
7.48659 6.40332 0.219915
7.48341 6.30375 0.219916
7.48023 6.20419 0.219917
7.47705 6.10462 0.219917
7.47386 6.00505 0.219918
7.47068 5.90549 0.219919
7.4675 5.80592 0.21992
7.46432 5.70636 0.21992
7.46114 5.60679 0.219921
7.45796 5.50722 0.219922
7.45478 5.40766 0.219922
7.4516 5.30809 0.219923
7.44842 5.20853 0.219924
7.44523 5.10896 0.219925
7.44205 5.00939 0.219925
7.43887 4.90983 0.219926
7.43569 4.81026 0.219927
7.43251 4.71069 0.219927
7.42933 4.61113 0.219928
7.42615 4.51156 0.219929
7.42297 4.412 0.21993
7.41978 4.31243 0.21993
7.4166 4.21286 0.219931
7.41342 4.1133 0.219932
7.41024 4.01373 0.219932
7.40706 3.91417 0.219933
7.40388 3.8146 0.219934
7.4007 3.71503 0.219935
7.39752 3.61547 0.219935
7.39433 3.5159 0.219936
7.39115 3.41634 0.219937
7.38797 3.31677 0.219937
7.38479 3.2172 0.219938
7.38161 3.11764 0.219939
7.37843 3.01807 0.21994
7.37525 2.91851 0.21994
7.37207 2.81894 0.219941
7.36888 2.71937 0.219942
7.3657 2.61981 0.219942
7.36252 2.52024 0.219943
7.35934 2.42068 0.219944
7.35616 2.32111 0.219945
7.35298 2.22154 0.219945
7.3498 2.12198 0.219946
7.34662 2.02241 0.219947
7.34343 1.92285 0.219947
7.34025 1.82328 0.219948
7.33707 1.72371 0.219949
7.33389 1.62415 0.219949
7.33071 1.52458 0.21995
7.32753 1.42502 0.219951
7.32435 1.32545 0.219952
7.32117 1.22588 0.219952
7.31799 1.12632 0.219953
7.3148 1.02675 0.219954
7.31162 0.927185 0.219954
7.30844 0.827619 0.219955
7.30526 0.728053 0.219956
7.30208 0.628487 0.219957
7.2989 0.528921 0.219957
7.29572 0.429354 0.219958
7.29254 0.329789 0.219959
7.28935 0.230223 0.219959
7.28617 0.130657 0.21996
7.28299 0.0310905 0.219961
7.27981 -0.0684757 0.219962
7.27663 -0.168042 0.219962
7.27345 -0.267608 0.219963
7.27027 -0.367173 0.219964
7.26709 -0.46674 0.219964
7.2639 -0.566306 0.219965
7.26072 -0.665872 0.219966
7.25754 -0.765438 0.219967
7.25436 -0.865004 0.219967
7.25118 -0.96457 0.219968
7.248 -1.06414 0.219969
7.24482 -1.1637 0.219969
7.24164 -1.26327 0.21997
7.23845 -1.36283 0.219971
7.23527 -1.4624 0.219972
7.23209 -1.56197 0.219972
7.22891 -1.66153 0.219973
7.22573 -1.7611 0.219974
7.22255 -1.86066 0.219974
7.21937 -1.96023 0.219975
7.21619 -2.0598 0.219976
7.213 -2.15936 0.219977
7.20982 -2.25893 0.219977
7.20664 -2.35849 0.219978
7.20346 -2.45806 0.219979
7.20028 -2.55763 0.219979
7.1971 -2.65719 0.21998
7.19392 -2.75676 0.219981
7.19074 -2.85632 0.219982
7.18756 -2.95589 0.219982
7.18437 -3.05546 0.219983
7.18119 -3.15502 0.219984
7.17801 -3.25459 0.219984
7.17483 -3.35415 0.219985
7.17165 -3.45372 0.219986
7.16847 -3.55329 0.219987
7.16529 -3.65285 0.219987
7.16211 -3.75242 0.219988
7.15892 -3.85199 0.219989
7.15574 -3.95155 0.219989
7.15256 -4.05112 0.21999
7.14938 -4.15068 0.219991
7.1462 -4.25025 0.219992
7.14302 -4.34982 0.219992
7.13984 -4.44938 0.219993
7.13666 -4.54895 0.219994
7.13347 -4.64851 0.219994
7.13029 -4.74808 0.219995
7.12711 -4.84765 0.219996
7.12393 -4.94721 0.219996
7.12075 -5.04678 0.219997
7.11757 -5.14634 0.219998
7.11439 -5.24591 0.219999
7.11121 -5.34548 0.219999
7.10802 -5.44504 0.22
7.10484 -5.54461 0.220001
7.10166 -5.64418 0.220001
7.09848 -5.74374 0.220002
7.0953 -5.84331 0.220003
7.09212 -5.94287 0.220004
7.08894 -6.04244 0.220004
7.08576 -6.142 0.220005
7.08258 -6.24157 0.220006
7.07939 -6.34114 0.220006
7.07621 -6.4407 0.220007
7.07303 -6.54027 0.220008
7.06985 -6.63984 0.220009
7.06667 -6.7394 0.220009
7.06349 -6.83897 0.22001
7.06031 -6.93853 0.220011
7.05713 -7.0381 0.220011
7.58934 6.4997 0.219914
7.58616 6.40014 0.219915
7.58297 6.30057 0.219915
7.57979 6.201 0.219916
7.57661 6.10144 0.219917
7.57343 6.00187 0.219918
7.57025 5.90231 0.219918
7.56707 5.80274 0.219919
7.56389 5.70317 0.21992
7.56071 5.60361 0.21992
7.55752 5.50404 0.219921
7.55434 5.40448 0.219922
7.55116 5.30491 0.219923
7.54798 5.20534 0.219923
7.5448 5.10578 0.219924
7.54162 5.00621 0.219925
7.53844 4.90665 0.219925
7.53526 4.80708 0.219926
7.53208 4.70751 0.219927
7.52889 4.60795 0.219928
7.52571 4.50838 0.219928
7.52253 4.40882 0.219929
7.51935 4.30925 0.21993
7.51617 4.20968 0.21993
7.51299 4.11012 0.219931
7.50981 4.01055 0.219932
7.50663 3.91099 0.219933
7.50344 3.81142 0.219933
7.50026 3.71185 0.219934
7.49708 3.61229 0.219935
7.4939 3.51272 0.219935
7.49072 3.41316 0.219936
7.48754 3.31359 0.219937
7.48436 3.21402 0.219938
7.48118 3.11446 0.219938
7.47799 3.01489 0.219939
7.47481 2.91532 0.21994
7.47163 2.81576 0.21994
7.46845 2.71619 0.219941
7.46527 2.61663 0.219942
7.46209 2.51706 0.219943
7.45891 2.41749 0.219943
7.45573 2.31793 0.219944
7.45254 2.21836 0.219945
7.44936 2.1188 0.219945
7.44618 2.01923 0.219946
7.443 1.91966 0.219947
7.43982 1.8201 0.219948
7.43664 1.72053 0.219948
7.43346 1.62097 0.219949
7.43028 1.5214 0.21995
7.4271 1.42183 0.21995
7.42391 1.32227 0.219951
7.42073 1.2227 0.219952
7.41755 1.12314 0.219952
7.41437 1.02357 0.219953
7.41119 0.924004 0.219954
7.40801 0.824438 0.219955
7.40483 0.724872 0.219955
7.40165 0.625305 0.219956
7.39846 0.525739 0.219957
7.39528 0.426173 0.219957
7.3921 0.326608 0.219958
7.38892 0.227042 0.219959
7.38574 0.127475 0.21996
7.38256 0.0279093 0.21996
7.37938 -0.0716569 0.219961
7.3762 -0.171223 0.219962
7.37301 -0.270789 0.219962
7.36983 -0.370355 0.219963
7.36665 -0.469921 0.219964
7.36347 -0.569487 0.219965
7.36029 -0.669053 0.219965
7.35711 -0.768619 0.219966
7.35393 -0.868186 0.219967
7.35075 -0.967751 0.219967
7.34756 -1.06732 0.219968
7.34438 -1.16688 0.219969
7.3412 -1.26645 0.21997
7.33802 -1.36602 0.21997
7.33484 -1.46558 0.219971
7.33166 -1.56515 0.219972
7.32848 -1.66471 0.219972
7.3253 -1.76428 0.219973
7.32211 -1.86385 0.219974
7.31893 -1.96341 0.219975
7.31575 -2.06298 0.219975
7.31257 -2.16254 0.219976
7.30939 -2.26211 0.219977
7.30621 -2.36168 0.219977
7.30303 -2.46124 0.219978
7.29985 -2.56081 0.219979
7.29667 -2.66037 0.21998
7.29348 -2.75994 0.21998
7.2903 -2.85951 0.219981
7.28712 -2.95907 0.219982
7.28394 -3.05864 0.219982
7.28076 -3.1582 0.219983
7.27758 -3.25777 0.219984
7.2744 -3.35734 0.219985
7.27122 -3.4569 0.219985
7.26803 -3.55647 0.219986
7.26485 -3.65603 0.219987
7.26167 -3.7556 0.219987
7.25849 -3.85517 0.219988
7.25531 -3.95473 0.219989
7.25213 -4.0543 0.21999
7.24895 -4.15387 0.21999
7.24577 -4.25343 0.219991
7.24258 -4.353 0.219992
7.2394 -4.45256 0.219992
7.23622 -4.55213 0.219993
7.23304 -4.65169 0.219994
7.22986 -4.75126 0.219995
7.22668 -4.85083 0.219995
7.2235 -4.95039 0.219996
7.22032 -5.04996 0.219997
7.21713 -5.14953 0.219997
7.21395 -5.24909 0.219998
7.21077 -5.34866 0.219999
7.20759 -5.44822 0.219999
7.20441 -5.54779 0.22
7.20123 -5.64736 0.220001
7.19805 -5.74692 0.220002
7.19487 -5.84649 0.220002
7.19168 -5.94605 0.220003
7.1885 -6.04562 0.220004
7.18532 -6.14519 0.220004
7.18214 -6.24475 0.220005
7.17896 -6.34432 0.220006
7.17578 -6.44388 0.220007
7.1726 -6.54345 0.220007
7.16942 -6.64302 0.220008
7.16624 -6.74258 0.220009
7.16305 -6.84215 0.220009
7.15987 -6.94171 0.22001
7.68572 6.39696 0.219914
7.68254 6.29739 0.219915
7.67936 6.19782 0.219916
7.67618 6.09826 0.219916
7.673 5.99869 0.219917
7.66982 5.89913 0.219918
7.66663 5.79956 0.219918
7.66345 5.69999 0.219919
7.66027 5.60043 0.21992
7.65709 5.50086 0.219921
7.65391 5.40129 0.219921
7.65073 5.30173 0.219922
7.64755 5.20216 0.219923
7.64437 5.1026 0.219923
7.64119 5.00303 0.219924
7.638 4.90346 0.219925
7.63482 4.8039 0.219926
7.63164 4.70433 0.219926
7.62846 4.60477 0.219927
7.62528 4.5052 0.219928
7.6221 4.40563 0.219928
7.61892 4.30607 0.219929
7.61574 4.2065 0.21993
7.61255 4.10694 0.219931
7.60937 4.00737 0.219931
7.60619 3.9078 0.219932
7.60301 3.80824 0.219933
7.59983 3.70867 0.219933
7.59665 3.60911 0.219934
7.59347 3.50954 0.219935
7.59029 3.40997 0.219936
7.5871 3.31041 0.219936
7.58392 3.21084 0.219937
7.58074 3.11128 0.219938
7.57756 3.01171 0.219938
7.57438 2.91214 0.219939
7.5712 2.81258 0.21994
7.56802 2.71301 0.219941
7.56484 2.61345 0.219941
7.56165 2.51388 0.219942
7.55847 2.41431 0.219943
7.55529 2.31475 0.219943
7.55211 2.21518 0.219944
7.54893 2.11562 0.219945
7.54575 2.01605 0.219946
7.54257 1.91648 0.219946
7.53939 1.81692 0.219947
7.5362 1.71735 0.219948
7.53302 1.61779 0.219948
7.52984 1.51822 0.219949
7.52666 1.41865 0.21995
7.52348 1.31909 0.219951
7.5203 1.21952 0.219951
7.51712 1.11995 0.219952
7.51394 1.02039 0.219953
7.51076 0.920823 0.219953
7.50757 0.821257 0.219954
7.50439 0.72169 0.219955
7.50121 0.622124 0.219956
7.49803 0.522558 0.219956
7.49485 0.422992 0.219957
7.49167 0.323427 0.219958
7.48849 0.22386 0.219958
7.48531 0.124294 0.219959
7.48212 0.024728 0.21996
7.47894 -0.0748382 0.21996
7.47576 -0.174404 0.219961
7.47258 -0.273971 0.219962
7.4694 -0.373536 0.219963
7.46622 -0.473102 0.219963
7.46304 -0.572668 0.219964
7.45986 -0.672234 0.219965
7.45667 -0.771801 0.219965
7.45349 -0.871367 0.219966
7.45031 -0.970932 0.219967
7.44713 -1.0705 0.219968
7.44395 -1.17006 0.219968
7.44077 -1.26963 0.219969
7.43759 -1.3692 0.21997
7.43441 -1.46876 0.21997
7.43122 -1.56833 0.219971
7.42804 -1.66789 0.219972
7.42486 -1.76746 0.219973
7.42168 -1.86703 0.219973
7.4185 -1.96659 0.219974
7.41532 -2.06616 0.219975
7.41214 -2.16573 0.219975
7.40896 -2.26529 0.219976
7.40577 -2.36486 0.219977
7.40259 -2.46442 0.219978
7.39941 -2.56399 0.219978
7.39623 -2.66356 0.219979
7.39305 -2.76312 0.21998
7.38987 -2.86269 0.21998
7.38669 -2.96225 0.219981
7.38351 -3.06182 0.219982
7.38033 -3.16139 0.219983
7.37714 -3.26095 0.219983
7.37396 -3.36052 0.219984
7.37078 -3.46008 0.219985
7.3676 -3.55965 0.219985
7.36442 -3.65922 0.219986
7.36124 -3.75878 0.219987
7.35806 -3.85835 0.219988
7.35488 -3.95791 0.219988
7.35169 -4.05748 0.219989
7.34851 -4.15705 0.21999
7.34533 -4.25661 0.21999
7.34215 -4.35618 0.219991
7.33897 -4.45574 0.219992
7.33579 -4.55531 0.219993
7.33261 -4.65488 0.219993
7.32943 -4.75444 0.219994
7.32624 -4.85401 0.219995
7.32306 -4.95357 0.219995
7.31988 -5.05314 0.219996
7.3167 -5.15271 0.219997
7.31352 -5.25227 0.219998
7.31034 -5.35184 0.219998
7.30716 -5.45141 0.219999
7.30398 -5.55097 0.22
7.30079 -5.65054 0.22
7.29761 -5.7501 0.220001
7.29443 -5.84967 0.220002
7.29125 -5.94923 0.220003
7.28807 -6.0488 0.220003
7.28489 -6.14837 0.220004
7.28171 -6.24793 0.220005
7.27853 -6.3475 0.220005
7.27534 -6.44707 0.220006
7.27216 -6.54663 0.220007
7.26898 -6.6462 0.220007
7.2658 -6.74576 0.220008
7.26262 -6.84533 0.220009
7.77893 6.19464 0.219915
7.77574 6.09508 0.219916
7.77256 5.99551 0.219917
7.76938 5.89594 0.219917
7.7662 5.79638 0.219918
7.76302 5.69681 0.219919
7.75984 5.59725 0.219919
7.75666 5.49768 0.21992
7.75348 5.39811 0.219921
7.75029 5.29855 0.219921
7.74711 5.19898 0.219922
7.74393 5.09942 0.219923
7.74075 4.99985 0.219924
7.73757 4.90028 0.219924
7.73439 4.80072 0.219925
7.73121 4.70115 0.219926
7.72803 4.60159 0.219926
7.72485 4.50202 0.219927
7.72166 4.40245 0.219928
7.71848 4.30289 0.219929
7.7153 4.20332 0.219929
7.71212 4.10376 0.21993
7.70894 4.00419 0.219931
7.70576 3.90462 0.219931
7.70258 3.80506 0.219932
7.6994 3.70549 0.219933
7.69621 3.60592 0.219934
7.69303 3.50636 0.219934
7.68985 3.40679 0.219935
7.68667 3.30723 0.219936
7.68349 3.20766 0.219936
7.68031 3.10809 0.219937
7.67713 3.00853 0.219938
7.67395 2.90896 0.219939
7.67076 2.8094 0.219939
7.66758 2.70983 0.21994
7.6644 2.61026 0.219941
7.66122 2.5107 0.219941
7.65804 2.41113 0.219942
7.65486 2.31157 0.219943
7.65168 2.212 0.219944
7.6485 2.11243 0.219944
7.64531 2.01287 0.219945
7.64213 1.9133 0.219946
7.63895 1.81374 0.219946
7.63577 1.71417 0.219947
7.63259 1.6146 0.219948
7.62941 1.51504 0.219949
7.62623 1.41547 0.219949
7.62305 1.31591 0.21995
7.61986 1.21634 0.219951
7.61668 1.11677 0.219951
7.6135 1.01721 0.219952
7.61032 0.917642 0.219953
7.60714 0.818075 0.219954
7.60396 0.718509 0.219954
7.60078 0.618943 0.219955
7.5976 0.519377 0.219956
7.59442 0.419811 0.219956
7.59123 0.320245 0.219957
7.58805 0.220679 0.219958
7.58487 0.121113 0.219959
7.58169 0.0215468 0.219959
7.57851 -0.0780194 0.21996
7.57533 -0.177586 0.219961
7.57215 -0.277152 0.219961
7.56897 -0.376717 0.219962
7.56578 -0.476283 0.219963
7.5626 -0.575849 0.219964
7.55942 -0.675416 0.219964
7.55624 -0.774982 0.219965
7.55306 -0.874548 0.219966
7.54988 -0.974113 0.219966
7.5467 -1.07368 0.219967
7.54352 -1.17325 0.219968
7.54033 -1.27281 0.219968
7.53715 -1.37238 0.219969
7.53397 -1.47194 0.21997
7.53079 -1.57151 0.219971
7.52761 -1.67108 0.219971
7.52443 -1.77064 0.219972
7.52125 -1.87021 0.219973
7.51807 -1.96977 0.219973
7.51488 -2.06934 0.219974
7.5117 -2.16891 0.219975
7.50852 -2.26847 0.219976
7.50534 -2.36804 0.219976
7.50216 -2.4676 0.219977
7.49898 -2.56717 0.219978
7.4958 -2.66674 0.219978
7.49262 -2.7663 0.219979
7.48944 -2.86587 0.21998
7.48625 -2.96543 0.219981
7.48307 -3.065 0.219981
7.47989 -3.16457 0.219982
7.47671 -3.26413 0.219983
7.47353 -3.3637 0.219983
7.47035 -3.46326 0.219984
7.46717 -3.56283 0.219985
7.46399 -3.6624 0.219986
7.4608 -3.76196 0.219986
7.45762 -3.86153 0.219987
7.45444 -3.9611 0.219988
7.45126 -4.06066 0.219988
7.44808 -4.16023 0.219989
7.4449 -4.25979 0.21999
7.44172 -4.35936 0.219991
7.43854 -4.45892 0.219991
7.43535 -4.55849 0.219992
7.43217 -4.65806 0.219993
7.42899 -4.75762 0.219993
7.42581 -4.85719 0.219994
7.42263 -4.95676 0.219995
7.41945 -5.05632 0.219996
7.41627 -5.15589 0.219996
7.41309 -5.25545 0.219997
7.4099 -5.35502 0.219998
7.40672 -5.45459 0.219998
7.40354 -5.55415 0.219999
7.40036 -5.65372 0.22
7.39718 -5.75328 0.220001
7.394 -5.85285 0.220001
7.39082 -5.95242 0.220002
7.38764 -6.05198 0.220003
7.38445 -6.15155 0.220003
7.38127 -6.25111 0.220004
7.37809 -6.35068 0.220005
7.37491 -6.45025 0.220006
7.37173 -6.54981 0.220006
7.36855 -6.64938 0.220007
7.36537 -6.74895 0.220008
7.87531 6.09189 0.219915
7.87213 5.99233 0.219916
7.86895 5.89276 0.219917
7.86577 5.7932 0.219917
7.86259 5.69363 0.219918
7.8594 5.59406 0.219919
7.85622 5.4945 0.21992
7.85304 5.39493 0.21992
7.84986 5.29537 0.219921
7.84668 5.1958 0.219922
7.8435 5.09623 0.219922
7.84032 4.99667 0.219923
7.83714 4.8971 0.219924
7.83395 4.79754 0.219924
7.83077 4.69797 0.219925
7.82759 4.5984 0.219926
7.82441 4.49884 0.219927
7.82123 4.39927 0.219927
7.81805 4.29971 0.219928
7.81487 4.20014 0.219929
7.81169 4.10057 0.219929
7.80851 4.00101 0.21993
7.80532 3.90144 0.219931
7.80214 3.80188 0.219932
7.79896 3.70231 0.219932
7.79578 3.60274 0.219933
7.7926 3.50318 0.219934
7.78942 3.40361 0.219934
7.78624 3.30405 0.219935
7.78306 3.20448 0.219936
7.77987 3.10491 0.219937
7.77669 3.00535 0.219937
7.77351 2.90578 0.219938
7.77033 2.80622 0.219939
7.76715 2.70665 0.219939
7.76397 2.60708 0.21994
7.76079 2.50752 0.219941
7.75761 2.40795 0.219942
7.75442 2.30838 0.219942
7.75124 2.20882 0.219943
7.74806 2.10925 0.219944
7.74488 2.00969 0.219944
7.7417 1.91012 0.219945
7.73852 1.81055 0.219946
7.73534 1.71099 0.219947
7.73216 1.61142 0.219947
7.72897 1.51186 0.219948
7.72579 1.41229 0.219949
7.72261 1.31272 0.219949
7.71943 1.21316 0.21995
7.71625 1.11359 0.219951
7.71307 1.01403 0.219952
7.70989 0.91446 0.219952
7.70671 0.814894 0.219953
7.70353 0.715328 0.219954
7.70034 0.615762 0.219954
7.69716 0.516196 0.219955
7.69398 0.416629 0.219956
7.6908 0.317064 0.219957
7.68762 0.217498 0.219957
7.68444 0.117932 0.219958
7.68126 0.0183656 0.219959
7.67808 -0.0812006 0.219959
7.67489 -0.180767 0.21996
7.67171 -0.280333 0.219961
7.66853 -0.379898 0.219962
7.66535 -0.479464 0.219962
7.66217 -0.579031 0.219963
7.65899 -0.678597 0.219964
7.65581 -0.778163 0.219964
7.65263 -0.877729 0.219965
7.64944 -0.977294 0.219966
7.64626 -1.07686 0.219967
7.64308 -1.17643 0.219967
7.6399 -1.27599 0.219968
7.63672 -1.37556 0.219969
7.63354 -1.47513 0.219969
7.63036 -1.57469 0.21997
7.62718 -1.67426 0.219971
7.62399 -1.77382 0.219971
7.62081 -1.87339 0.219972
7.61763 -1.97296 0.219973
7.61445 -2.07252 0.219974
7.61127 -2.17209 0.219974
7.60809 -2.27165 0.219975
7.60491 -2.37122 0.219976
7.60173 -2.47079 0.219976
7.59854 -2.57035 0.219977
7.59536 -2.66992 0.219978
7.59218 -2.76948 0.219979
7.589 -2.86905 0.219979
7.58582 -2.96862 0.21998
7.58264 -3.06818 0.219981
7.57946 -3.16775 0.219981
7.57628 -3.26731 0.219982
7.5731 -3.36688 0.219983
7.56991 -3.46645 0.219984
7.56673 -3.56601 0.219984
7.56355 -3.66558 0.219985
7.56037 -3.76514 0.219986
7.55719 -3.86471 0.219986
7.55401 -3.96428 0.219987
7.55083 -4.06384 0.219988
7.54765 -4.16341 0.219989
7.54446 -4.26298 0.219989
7.54128 -4.36254 0.21999
7.5381 -4.46211 0.219991
7.53492 -4.56167 0.219991
7.53174 -4.66124 0.219992
7.52856 -4.7608 0.219993
7.52538 -4.86037 0.219994
7.5222 -4.95994 0.219994
7.51901 -5.0595 0.219995
7.51583 -5.15907 0.219996
7.51265 -5.25864 0.219996
7.50947 -5.3582 0.219997
7.50629 -5.45777 0.219998
7.50311 -5.55733 0.219999
7.49993 -5.6569 0.219999
7.49675 -5.75646 0.22
7.49356 -5.85603 0.220001
7.49038 -5.9556 0.220001
7.4872 -6.05516 0.220002
7.48402 -6.15473 0.220003
7.48084 -6.2543 0.220004
7.47766 -6.35386 0.220004
