# .PCD v0.7 - Point Cloud Data file format
VERSION 0.7
FIELDS x y z
SIZE 4 4 4
TYPE F F F
COUNT 1 1 1
WIDTH 1537
HEIGHT 1
VIEWPOINT 0 0 0 1 0 0 0
POINTS 1537
DATA ascii
2.5124378 -2.114428 0.099502489
2.5124378 -2.114428 0.14925373
2.5124378 -2.114428 0.19900498
2.5124378 -2.114428 0.24875623
2.5124378 -2.114428 0.29850745
2.5124378 -2.114428 0.3482587
2.5124378 -2.114428 0.39800996
2.5124378 -2.114428 0.44776121
2.5124378 -2.114428 0.49751246
2.5124378 -2.114428 0.54726368
2.5124378 -2.114428 0.5970149
2.5124378 -2.114428 0.64676619
2.5124378 -2.114428 0.69651741
2.5124378 -2.114428 0.74626869
2.5124378 -2.114428 0.79601991
2.5124378 -2.114428 0.84577113
2.5124378 -2.114428 0.89552242
2.5124378 -2.114428 0.94527364
2.5124378 -2.114428 0.99502492
2.5124378 -2.114428 1.0447761
2.5124378 -2.114428 1.0945274
2.5124378 -2.114428 1.1442786
2.5124378 -2.114428 1.1940298
2.5124378 -2.114428 1.2437811
2.5124378 -2.114428 1.2935324
2.5124378 -2.114428 1.3432837
2.5124378 -2.114428 1.3930348
2.5124378 -2.114428 1.4427861
2.5124378 -2.114428 1.4925374
2.5124378 -2.114428 1.5422885
2.5124378 -2.114428 1.5920398
2.5124378 -2.114428 1.6417911
2.5124378 -2.114428 1.6915423
2.5124378 -2.114428 1.7412935
2.5124378 -2.114428 1.7910448
2.5124378 -2.114428 1.840796
2.5124378 -2.114428 1.8905473
2.5124378 -2.114428 1.9402986
2.5124378 -2.114428 1.9900498
2.5124378 -2.114428 2.0398011
2.5124378 -2.114428 2.0895522
2.5124378 -2.114428 2.1393034
2.5124378 -2.114428 2.1890547
2.5124378 -2.114428 2.238806
2.5124378 -2.114428 2.2885573
2.5124378 -2.114428 2.3383086
2.5124378 -2.114428 2.3880596
2.5124378 -2.114428 2.4378109
2.5124378 -2.114428 2.4875622
2.5124378 -2.1641793 0
2.5124378 -2.1641793 0.049751244
2.5124378 -2.1641793 0.099502489
2.5124378 -2.1641793 0.14925373
2.5124378 -2.1641793 0.19900498
2.5124378 -2.1641793 0.24875623
2.5124378 -2.1641793 0.29850745
2.5124378 -2.1641793 0.3482587
2.5124378 -2.1641793 0.39800996
2.5124378 -2.1641793 0.44776121
2.5124378 -2.1641793 0.49751246
2.5124378 -2.1641793 0.54726368
2.5124378 -2.1641793 0.5970149
2.5124378 -2.1641793 0.64676619
2.5124378 -2.1641793 0.69651741
2.5124378 -2.1641793 0.74626869
2.5124378 -2.1641793 0.79601991
2.5124378 -2.1641793 0.84577113
2.5124378 -2.1641793 0.89552242
2.5124378 -2.1641793 0.94527364
2.5124378 -2.1641793 0.99502492
2.5124378 -2.1641793 1.0447761
2.5124378 -2.1641793 1.0945274
2.5124378 -2.1641793 1.1442786
2.5124378 -2.1641793 1.1940298
2.5124378 -2.1641793 1.2437811
2.5124378 -2.1641793 1.2935324
2.5124378 -2.1641793 1.3432837
2.5124378 -2.1641793 1.3930348
2.5124378 -2.1641793 1.4427861
2.5124378 -2.1641793 1.4925374
2.5124378 -2.1641793 1.5422885
2.5124378 -2.1641793 1.5920398
2.5124378 -2.1641793 1.6417911
2.5124378 -2.1641793 1.6915423
2.5124378 -2.1641793 1.7412935
2.5124378 -2.1641793 1.7910448
2.5124378 -2.1641793 1.840796
2.5124378 -2.1641793 1.8905473
2.5124378 -2.1641793 1.9402986
2.5124378 -2.1641793 1.9900498
2.5124378 -2.1641793 2.0398011
2.5124378 -2.1641793 2.0895522
2.5124378 -2.1641793 2.1393034
2.5124378 -2.1641793 2.1890547
2.5124378 -2.1641793 2.238806
2.5124378 -2.1641793 2.2885573
2.5124378 -2.1641793 2.3383086
2.5124378 -2.1641793 2.3880596
2.5124378 -2.1641793 2.4378109
2.5124378 -2.1641793 2.4875622
2.5124378 -2.2139306 0
2.5124378 -2.2139306 0.049751244
2.5124378 -2.2139306 0.099502489
2.5124378 -2.2139306 0.14925373
2.5124378 -2.2139306 0.19900498
2.5124378 -2.2139306 0.24875623
2.5124378 -2.2139306 0.29850745
2.5124378 -2.2139306 0.3482587
2.5124378 -2.2139306 0.39800996
2.5124378 -2.2139306 0.44776121
2.5124378 -2.2139306 0.49751246
2.5124378 -2.2139306 0.54726368
2.5124378 -2.2139306 0.5970149
2.5124378 -2.2139306 0.64676619
2.5124378 -2.2139306 0.69651741
2.5124378 -2.2139306 0.74626869
2.5124378 -2.2139306 0.79601991
2.5124378 -2.2139306 0.84577113
2.5124378 -2.2139306 0.89552242
2.5124378 -2.2139306 0.94527364
2.5124378 -2.2139306 0.99502492
2.5124378 -2.2139306 1.0447761
2.5124378 -2.2139306 1.0945274
2.5124378 -2.2139306 1.1442786
2.5124378 -2.2139306 1.1940298
2.5124378 -2.2139306 1.2437811
2.5124378 -2.2139306 1.2935324
2.5124378 -2.2139306 1.3432837
2.5124378 -2.2139306 1.3930348
2.5124378 -2.2139306 1.4427861
2.5124378 -2.2139306 1.4925374
2.5124378 -2.2139306 1.5422885
2.5124378 -2.2139306 1.5920398
2.5124378 -2.2139306 1.6417911
2.5124378 -2.2139306 1.6915423
2.5124378 -2.2139306 1.7412935
2.5124378 -2.2139306 1.7910448
2.5124378 -2.2139306 1.840796
2.5124378 -2.2139306 1.8905473
2.5124378 -2.2139306 1.9402986
2.5124378 -2.2139306 1.9900498
2.5124378 -2.2139306 2.0398011
2.5124378 -2.2139306 2.0895522
2.5124378 -2.2139306 2.1393034
2.5124378 -2.2139306 2.1890547
2.5124378 -2.2139306 2.238806
2.5124378 -2.2139306 2.2885573
2.5124378 -2.2139306 2.3383086
2.5124378 -2.2139306 2.3880596
2.5124378 -2.2139306 2.4378109
2.5124378 -2.2139306 2.4875622
2.5124378 -2.2636819 0
2.5124378 -2.2636819 0.049751244
2.5124378 -2.2636819 0.099502489
2.5124378 -2.2636819 0.14925373
2.5124378 -2.2636819 0.19900498
2.5124378 -2.2636819 0.24875623
2.5124378 -2.2636819 0.29850745
2.5124378 -2.2636819 0.3482587
2.5124378 -2.2636819 0.39800996
2.5124378 -2.2636819 0.44776121
2.5124378 -2.2636819 0.49751246
2.5124378 -2.2636819 0.54726368
2.5124378 -2.2636819 0.5970149
2.5124378 -2.2636819 0.64676619
2.5124378 -2.2636819 0.69651741
2.5124378 -2.2636819 0.74626869
2.5124378 -2.2636819 0.79601991
2.5124378 -2.2636819 0.84577113
2.5124378 -2.2636819 0.89552242
2.5124378 -2.2636819 0.94527364
2.5124378 -2.2636819 0.99502492
2.5124378 -2.2636819 1.0447761
2.5124378 -2.2636819 1.0945274
2.5124378 -2.2636819 1.1442786
2.5124378 -2.2636819 1.1940298
2.5124378 -2.2636819 1.2437811
2.5124378 -2.2636819 1.2935324
2.5124378 -2.2636819 1.3432837
2.5124378 -2.2636819 1.3930348
2.5124378 -2.2636819 1.4427861
2.5124378 -2.2636819 1.4925374
2.5124378 -2.2636819 1.5422885
2.5124378 -2.2636819 1.5920398
2.5124378 -2.2636819 1.6417911
2.5124378 -2.2636819 1.6915423
2.5124378 -2.2636819 1.7412935
2.5124378 -2.2636819 1.7910448
2.5124378 -2.2636819 1.840796
2.5124378 -2.2636819 1.8905473
2.5124378 -2.2636819 1.9402986
2.5124378 -2.2636819 1.9900498
2.5124378 -2.2636819 2.0398011
2.5124378 -2.2636819 2.0895522
2.5124378 -2.2636819 2.1393034
2.5124378 -2.2636819 2.1890547
2.5124378 -2.2636819 2.238806
2.5124378 -2.2636819 2.2885573
2.5124378 -2.2636819 2.3383086
2.5124378 -2.2636819 2.3880596
2.5124378 -2.2636819 2.4378109
2.5124378 -2.2636819 2.4875622
2.5124378 -2.3134332 0
2.5124378 -2.3134332 0.049751244
2.5124378 -2.3134332 0.099502489
2.5124378 -2.3134332 0.14925373
2.5124378 -2.3134332 0.19900498
2.5124378 -2.3134332 0.24875623
2.5124378 -2.3134332 0.29850745
2.5124378 -2.3134332 0.3482587
2.5124378 -2.3134332 0.39800996
2.5124378 -2.3134332 0.44776121
2.5124378 -2.3134332 0.49751246
2.5124378 -2.3134332 0.54726368
2.5124378 -2.3134332 0.5970149
2.5124378 -2.3134332 0.64676619
2.5124378 -2.3134332 0.69651741
2.5124378 -2.3134332 0.74626869
2.5124378 -2.3134332 0.79601991
2.5124378 -2.3134332 0.84577113
2.5124378 -2.3134332 0.89552242
2.5124378 -2.3134332 0.94527364
2.5124378 -2.3134332 0.99502492
2.5124378 -2.3134332 1.0447761
2.5124378 -2.3134332 1.0945274
2.5124378 -2.3134332 1.1442786
2.5124378 -2.3134332 1.1940298
2.5124378 -2.3134332 1.2437811
2.5124378 -2.3134332 1.2935324
2.5124378 -2.3134332 1.3432837
2.5124378 -2.3134332 1.3930348
2.5124378 -2.3134332 1.4427861
2.5124378 -2.3134332 1.4925374
2.5124378 -2.3134332 1.5422885
2.5124378 -2.3134332 1.5920398
2.5124378 -2.3134332 1.6417911
2.5124378 -2.3134332 1.6915423
2.5124378 -2.3134332 1.7412935
2.5124378 -2.3134332 1.7910448
2.5124378 -2.3134332 1.840796
2.5124378 -2.3134332 1.8905473
2.5124378 -2.3134332 1.9402986
2.5124378 -2.3134332 1.9900498
2.5124378 -2.3134332 2.0398011
2.5124378 -2.3134332 2.0895522
2.5124378 -2.3134332 2.1393034
2.5124378 -2.3134332 2.1890547
2.5124378 -2.3134332 2.238806
2.5124378 -2.3134332 2.2885573
2.5124378 -2.3134332 2.3383086
2.5124378 -2.3134332 2.3880596
2.5124378 -2.3134332 2.4378109
2.5124378 -2.3134332 2.4875622
2.5124378 -2.363184 0
2.5124378 -2.363184 0.049751244
2.5124378 -2.363184 0.099502489
2.5124378 -2.363184 0.14925373
2.5124378 -2.363184 0.19900498
2.5124378 -2.363184 0.24875623
2.5124378 -2.363184 0.29850745
2.5124378 -2.363184 0.3482587
2.5124378 -2.363184 0.39800996
2.5124378 -2.363184 0.44776121
2.5124378 -2.363184 0.49751246
2.5124378 -2.363184 0.54726368
2.5124378 -2.363184 0.5970149
2.5124378 -2.363184 0.64676619
2.5124378 -2.363184 0.69651741
2.5124378 -2.363184 0.74626869
2.5124378 -2.363184 0.79601991
2.5124378 -2.363184 0.84577113
2.5124378 -2.363184 0.89552242
2.5124378 -2.363184 0.94527364
2.5124378 -2.363184 0.99502492
2.5124378 -2.363184 1.0447761
2.5124378 -2.363184 1.0945274
2.5124378 -2.363184 1.1442786
2.5124378 -2.363184 1.1940298
2.5124378 -2.363184 1.2437811
2.5124378 -2.363184 1.2935324
2.5124378 -2.363184 1.3432837
2.5124378 -2.363184 1.3930348
2.5124378 -2.363184 1.4427861
2.5124378 -2.363184 1.4925374
2.5124378 -2.363184 1.5422885
2.5124378 -2.363184 1.5920398
2.5124378 -2.363184 1.6417911
2.5124378 -2.363184 1.6915423
2.5124378 -2.363184 1.7412935
2.5124378 -2.363184 1.7910448
2.5124378 -2.363184 1.840796
2.5124378 -2.363184 1.8905473
2.5124378 -2.363184 1.9402986
2.5124378 -2.363184 1.9900498
2.5124378 -2.363184 2.0398011
2.5124378 -2.363184 2.0895522
2.5124378 -2.363184 2.1393034
2.5124378 -2.363184 2.1890547
2.5124378 -2.363184 2.238806
2.5124378 -2.363184 2.2885573
2.5124378 -2.363184 2.3383086
2.5124378 -2.363184 2.3880596
2.5124378 -2.363184 2.4378109
2.5124378 -2.363184 2.4875622
2.5124378 -2.4129353 0
2.5124378 -2.4129353 0.049751244
2.5124378 -2.4129353 0.099502489
2.5124378 -2.4129353 0.14925373
2.5124378 -2.4129353 0.19900498
2.5124378 -2.4129353 0.24875623
2.5124378 -2.4129353 0.29850745
2.5124378 -2.4129353 0.3482587
2.5124378 -2.4129353 0.39800996
2.5124378 -2.4129353 0.44776121
2.5124378 -2.4129353 0.49751246
2.5124378 -2.4129353 0.54726368
2.5124378 -2.4129353 0.5970149
2.5124378 -2.4129353 0.64676619
2.5124378 -2.4129353 0.69651741
2.5124378 -2.4129353 0.74626869
2.5124378 -2.4129353 0.79601991
2.5124378 -2.4129353 0.84577113
2.5124378 -2.4129353 0.89552242
2.5124378 -2.4129353 0.94527364
2.5124378 -2.4129353 0.99502492
2.5124378 -2.4129353 1.0447761
2.5124378 -2.4129353 1.0945274
2.5124378 -2.4129353 1.1442786
2.5124378 -2.4129353 1.1940298
2.5124378 -2.4129353 1.2437811
2.5124378 -2.4129353 1.2935324
2.5124378 -2.4129353 1.3432837
2.5124378 -2.4129353 1.3930348
2.5124378 -2.4129353 1.4427861
2.5124378 -2.4129353 1.4925374
2.5124378 -2.4129353 1.5422885
2.5124378 -2.4129353 1.5920398
2.5124378 -2.4129353 1.6417911
2.5124378 -2.4129353 1.6915423
2.5124378 -2.4129353 1.7412935
2.5124378 -2.4129353 1.7910448
2.5124378 -2.4129353 1.840796
2.5124378 -2.4129353 1.8905473
2.5124378 -2.4129353 1.9402986
2.5124378 -2.4129353 1.9900498
2.5124378 -2.4129353 2.0398011
2.5124378 -2.4129353 2.0895522
2.5124378 -2.4129353 2.1393034
2.5124378 -2.4129353 2.1890547
2.5124378 -2.4129353 2.238806
2.5124378 -2.4129353 2.2885573
2.5124378 -2.4129353 2.3383086
2.5124378 -2.4129353 2.3880596
2.5124378 -2.4129353 2.4378109
2.5124378 -2.4129353 2.4875622
2.5124378 -2.4626865 0
2.5124378 -2.4626865 0.049751244
2.5124378 -2.4626865 0.099502489
2.5124378 -2.4626865 0.14925373
2.5124378 -2.4626865 0.19900498
2.5124378 -2.4626865 0.24875623
2.5124378 -2.4626865 0.29850745
2.5124378 -2.4626865 0.3482587
2.5124378 -2.4626865 0.39800996
2.5124378 -2.4626865 0.44776121
2.5124378 -2.4626865 0.49751246
2.5124378 -2.4626865 0.54726368
2.5124378 -2.4626865 0.5970149
2.5124378 -2.4626865 0.64676619
2.5124378 -2.4626865 0.69651741
2.5124378 -2.4626865 0.74626869
2.5124378 -2.4626865 0.79601991
2.5124378 -2.4626865 0.84577113
2.5124378 -2.4626865 0.89552242
2.5124378 -2.4626865 0.94527364
2.5124378 -2.4626865 0.99502492
2.5124378 -2.4626865 1.0447761
2.5124378 -2.4626865 1.0945274
2.5124378 -2.4626865 1.1442786
2.5124378 -2.4626865 1.1940298
2.5124378 -2.4626865 1.2437811
2.5124378 -2.4626865 1.2935324
2.5124378 -2.4626865 1.3432837
2.5124378 -2.4626865 1.3930348
2.5124378 -2.4626865 1.4427861
2.5124378 -2.4626865 1.4925374
2.5124378 -2.4626865 1.5422885
2.5124378 -2.4626865 1.5920398
2.5124378 -2.4626865 1.6417911
2.5124378 -2.4626865 1.6915423
2.5124378 -2.4626865 1.7412935
2.5124378 -2.4626865 1.7910448
2.5124378 -2.4626865 1.840796
2.5124378 -2.4626865 1.8905473
2.5124378 -2.4626865 1.9402986
2.5124378 -2.4626865 1.9900498
2.5124378 -2.4626865 2.0398011
2.5124378 -2.4626865 2.0895522
2.5124378 -2.4626865 2.1393034
2.5124378 -2.4626865 2.1890547
2.5124378 -2.4626865 2.238806
2.5124378 -2.4626865 2.2885573
2.5124378 -2.4626865 2.3383086
2.5124378 -2.4626865 2.3880596
2.5124378 -2.4626865 2.4378109
2.5124378 -2.4626865 2.4875622
2.5124378 -2.5124378 0
2.5124378 -2.5124378 0.049751244
2.5124378 -2.5124378 0.099502489
2.5124378 -2.5124378 0.14925373
2.5124378 -2.5124378 0.19900498
2.5124378 -2.5124378 0.24875623
2.5124378 -2.5124378 0.29850745
2.5124378 -2.5124378 0.3482587
2.5124378 -2.5124378 0.39800996
2.5124378 -2.5124378 0.44776121
2.5124378 -2.5124378 0.49751246
2.5124378 -2.5124378 0.54726368
2.5124378 -2.5124378 0.5970149
2.5124378 -2.5124378 0.64676619
2.5124378 -2.5124378 0.69651741
2.5124378 -2.5124378 0.74626869
2.5124378 -2.5124378 0.79601991
2.5124378 -2.5124378 0.84577113
2.5124378 -2.5124378 0.89552242
2.5124378 -2.5124378 0.94527364
2.5124378 -2.5124378 0.99502492
2.5124378 -2.5124378 1.0447761
2.5124378 -2.5124378 1.0945274
2.5124378 -2.5124378 1.1442786
2.5124378 -2.5124378 1.1940298
2.5124378 -2.5124378 1.2437811
2.5124378 -2.5124378 1.2935324
2.5124378 -2.5124378 1.3432837
2.5124378 -2.5124378 1.3930348
2.5124378 -2.5124378 1.4427861
2.5124378 -2.5124378 1.4925374
2.5124378 -2.5124378 1.5422885
2.5124378 -2.5124378 1.5920398
2.5124378 -2.5124378 1.6417911
2.5124378 -2.5124378 1.6915423
2.5124378 -2.5124378 1.7412935
2.5124378 -2.5124378 1.7910448
2.5124378 -2.5124378 1.840796
2.5124378 -2.5124378 1.8905473
2.5124378 -2.5124378 1.9402986
2.5124378 -2.5124378 1.9900498
2.5124378 -2.5124378 2.0398011
2.5124378 -2.5124378 2.0895522
2.5124378 -2.5124378 2.1393034
2.5124378 -2.5124378 2.1890547
2.5124378 -2.5124378 2.238806
2.5124378 -2.5124378 2.2885573
2.5124378 -2.5124378 2.3383086
2.5124378 -2.5124378 2.3880596
2.5124378 -2.5124378 2.4378109
2.5124378 -2.5124378 2.4875622
2.5124378 -2.5621891 0
2.5124378 -2.5621891 0.049751244
2.5124378 -2.5621891 0.099502489
2.5124378 -2.5621891 0.14925373
2.5124378 -2.5621891 0.19900498
2.5124378 -2.5621891 0.24875623
2.5124378 -2.5621891 0.29850745
2.5124378 -2.5621891 0.3482587
2.5124378 -2.5621891 0.39800996
2.5124378 -2.5621891 0.44776121
2.5124378 -2.5621891 0.49751246
2.5124378 -2.5621891 0.54726368
2.5124378 -2.5621891 0.5970149
2.5124378 -2.5621891 0.64676619
2.5124378 -2.5621891 0.69651741
2.5124378 -2.5621891 0.74626869
2.5124378 -2.5621891 0.79601991
2.5124378 -2.5621891 0.84577113
2.5124378 -2.5621891 0.89552242
2.5124378 -2.5621891 0.94527364
2.5124378 -2.5621891 0.99502492
2.5124378 -2.5621891 1.0447761
2.5124378 -2.5621891 1.0945274
2.5124378 -2.5621891 1.1442786
2.5124378 -2.5621891 1.1940298
2.5124378 -2.5621891 1.2437811
2.5124378 -2.5621891 1.2935324
2.5124378 -2.5621891 1.3432837
2.5124378 -2.5621891 1.3930348
2.5124378 -2.5621891 1.4427861
2.5124378 -2.5621891 1.4925374
2.5124378 -2.5621891 1.5422885
2.5124378 -2.5621891 1.5920398
2.5124378 -2.5621891 1.6417911
2.5124378 -2.5621891 1.6915423
2.5124378 -2.5621891 1.7412935
2.5124378 -2.5621891 1.7910448
2.5124378 -2.5621891 1.840796
2.5124378 -2.5621891 1.8905473
2.5124378 -2.5621891 1.9402986
2.5124378 -2.5621891 1.9900498
2.5124378 -2.5621891 2.0398011
2.5124378 -2.5621891 2.0895522
2.5124378 -2.5621891 2.1393034
2.5124378 -2.5621891 2.1890547
2.5124378 -2.5621891 2.238806
2.5124378 -2.5621891 2.2885573
2.5124378 -2.5621891 2.3383086
2.5124378 -2.5621891 2.3880596
2.5124378 -2.5621891 2.4378109
2.5124378 -2.5621891 2.4875622
2.5124378 -2.6119404 0
2.5124378 -2.6119404 0.049751244
2.5124378 -2.6119404 0.099502489
2.5124378 -2.6119404 0.14925373
2.5124378 -2.6119404 0.19900498
2.5124378 -2.6119404 0.24875623
2.5124378 -2.6119404 0.29850745
2.5124378 -2.6119404 0.3482587
2.5124378 -2.6119404 0.39800996
2.5124378 -2.6119404 0.44776121
2.5124378 -2.6119404 0.49751246
2.5124378 -2.6119404 0.54726368
2.5124378 -2.6119404 0.5970149
2.5124378 -2.6119404 0.64676619
2.5124378 -2.6119404 0.69651741
2.5124378 -2.6119404 0.74626869
2.5124378 -2.6119404 0.79601991
2.5124378 -2.6119404 0.84577113
2.5124378 -2.6119404 0.89552242
2.5124378 -2.6119404 0.94527364
2.5124378 -2.6119404 0.99502492
2.5124378 -2.6119404 1.0447761
2.5124378 -2.6119404 1.0945274
2.5124378 -2.6119404 1.1442786
2.5124378 -2.6119404 1.1940298
2.5124378 -2.6119404 1.2437811
2.5124378 -2.6119404 1.2935324
2.5124378 -2.6119404 1.3432837
2.5124378 -2.6119404 1.3930348
2.5124378 -2.6119404 1.4427861
2.5124378 -2.6119404 1.4925374
2.5124378 -2.6119404 1.5422885
2.5124378 -2.6119404 1.5920398
2.5124378 -2.6119404 1.6417911
2.5124378 -2.6119404 1.6915423
2.5124378 -2.6119404 1.7412935
2.5124378 -2.6119404 1.7910448
2.5124378 -2.6119404 1.840796
2.5124378 -2.6119404 1.8905473
2.5124378 -2.6119404 1.9402986
2.5124378 -2.6119404 1.9900498
2.5124378 -2.6119404 2.0398011
2.5124378 -2.6119404 2.0895522
2.5124378 -2.6119404 2.1393034
2.5124378 -2.6119404 2.1890547
2.5124378 -2.6119404 2.238806
2.5124378 -2.6119404 2.2885573
2.5124378 -2.6119404 2.3383086
2.5124378 -2.6119404 2.3880596
2.5124378 -2.6119404 2.4378109
2.5124378 -2.6119404 2.4875622
2.5124378 -2.6616917 0
2.5124378 -2.6616917 0.049751244
2.5124378 -2.6616917 0.099502489
2.5124378 -2.6616917 0.14925373
2.5124378 -2.6616917 0.19900498
2.5124378 -2.6616917 0.24875623
2.5124378 -2.6616917 0.29850745
2.5124378 -2.6616917 0.3482587
2.5124378 -2.6616917 0.39800996
2.5124378 -2.6616917 0.44776121
2.5124378 -2.6616917 0.49751246
2.5124378 -2.6616917 0.54726368
2.5124378 -2.6616917 0.5970149
2.5124378 -2.6616917 0.64676619
2.5124378 -2.6616917 0.69651741
2.5124378 -2.6616917 0.74626869
2.5124378 -2.6616917 0.79601991
2.5124378 -2.6616917 0.84577113
2.5124378 -2.6616917 0.89552242
2.5124378 -2.6616917 0.94527364
2.5124378 -2.6616917 0.99502492
2.5124378 -2.6616917 1.0447761
2.5124378 -2.6616917 1.0945274
2.5124378 -2.6616917 1.1442786
2.5124378 -2.6616917 1.1940298
2.5124378 -2.6616917 1.2437811
2.5124378 -2.6616917 1.2935324
2.5124378 -2.6616917 1.3432837
2.5124378 -2.6616917 1.3930348
2.5124378 -2.6616917 1.4427861
2.5124378 -2.6616917 1.4925374
2.5124378 -2.6616917 1.5422885
2.5124378 -2.6616917 1.5920398
2.5124378 -2.6616917 1.6417911
2.5124378 -2.6616917 1.6915423
2.5124378 -2.6616917 1.7412935
2.5124378 -2.6616917 1.7910448
2.5124378 -2.6616917 1.840796
2.5124378 -2.6616917 1.8905473
2.5124378 -2.6616917 1.9402986
2.5124378 -2.6616917 1.9900498
2.5124378 -2.6616917 2.0398011
2.5124378 -2.6616917 2.0895522
2.5124378 -2.6616917 2.1393034
2.5124378 -2.6616917 2.1890547
2.5124378 -2.6616917 2.238806
2.5124378 -2.6616917 2.2885573
2.5124378 -2.6616917 2.3383086
2.5124378 -2.6616917 2.3880596
2.5124378 -2.6616917 2.4378109
2.5124378 -2.6616917 2.4875622
2.5124378 -2.7114429 0
2.5124378 -2.7114429 0.049751244
2.5124378 -2.7114429 0.099502489
2.5124378 -2.7114429 0.14925373
2.5124378 -2.7114429 0.19900498
2.5124378 -2.7114429 0.24875623
2.5124378 -2.7114429 0.29850745
2.5124378 -2.7114429 0.3482587
2.5124378 -2.7114429 0.39800996
2.5124378 -2.7114429 0.44776121
2.5124378 -2.7114429 0.49751246
2.5124378 -2.7114429 0.54726368
2.5124378 -2.7114429 0.5970149
2.5124378 -2.7114429 0.64676619
2.5124378 -2.7114429 0.69651741
2.5124378 -2.7114429 0.74626869
2.5124378 -2.7114429 0.79601991
2.5124378 -2.7114429 0.84577113
2.5124378 -2.7114429 0.89552242
2.5124378 -2.7114429 0.94527364
2.5124378 -2.7114429 0.99502492
2.5124378 -2.7114429 1.0447761
2.5124378 -2.7114429 1.0945274
2.5124378 -2.7114429 1.1442786
2.5124378 -2.7114429 1.1940298
2.5124378 -2.7114429 1.2437811
2.5124378 -2.7114429 1.2935324
2.5124378 -2.7114429 1.3432837
2.5124378 -2.7114429 1.3930348
2.5124378 -2.7114429 1.4427861
2.5124378 -2.7114429 1.4925374
2.5124378 -2.7114429 1.5422885
2.5124378 -2.7114429 1.5920398
2.5124378 -2.7114429 1.6417911
2.5124378 -2.7114429 1.6915423
2.5124378 -2.7114429 1.7412935
2.5124378 -2.7114429 1.7910448
2.5124378 -2.7114429 1.840796
2.5124378 -2.7114429 1.8905473
2.5124378 -2.7114429 1.9402986
2.5124378 -2.7114429 1.9900498
2.5124378 -2.7114429 2.0398011
2.5124378 -2.7114429 2.0895522
2.5124378 -2.7114429 2.1393034
2.5124378 -2.7114429 2.1890547
2.5124378 -2.7114429 2.238806
2.5124378 -2.7114429 2.2885573
2.5124378 -2.7114429 2.3383086
2.5124378 -2.7114429 2.3880596
2.5124378 -2.7114429 2.4378109
2.5124378 -2.7114429 2.4875622
2.5124378 -2.7611942 0
2.5124378 -2.7611942 0.049751244
2.5124378 -2.7611942 0.099502489
2.5124378 -2.7611942 0.14925373
2.5124378 -2.7611942 0.19900498
2.5124378 -2.7611942 0.24875623
2.5124378 -2.7611942 0.29850745
2.5124378 -2.7611942 0.3482587
2.5124378 -2.7611942 0.39800996
2.5124378 -2.7611942 0.44776121
2.5124378 -2.7611942 0.49751246
2.5124378 -2.7611942 0.54726368
2.5124378 -2.7611942 0.5970149
2.5124378 -2.7611942 0.64676619
2.5124378 -2.7611942 0.69651741
2.5124378 -2.7611942 0.74626869
2.5124378 -2.7611942 0.79601991
2.5124378 -2.7611942 0.84577113
2.5124378 -2.7611942 0.89552242
2.5124378 -2.7611942 0.94527364
2.5124378 -2.7611942 0.99502492
2.5124378 -2.7611942 1.0447761
2.5124378 -2.7611942 1.0945274
2.5124378 -2.7611942 1.1442786
2.5124378 -2.7611942 1.1940298
2.5124378 -2.7611942 1.2437811
2.5124378 -2.7611942 1.2935324
2.5124378 -2.7611942 1.3432837
2.5124378 -2.7611942 1.3930348
2.5124378 -2.7611942 1.4427861
2.5124378 -2.7611942 1.4925374
2.5124378 -2.7611942 1.5422885
2.5124378 -2.7611942 1.5920398
2.5124378 -2.7611942 1.6417911
2.5124378 -2.7611942 1.6915423
2.5124378 -2.7611942 1.7412935
2.5124378 -2.7611942 1.7910448
2.5124378 -2.7611942 1.840796
2.5124378 -2.7611942 1.8905473
2.5124378 -2.7611942 1.9402986
2.5124378 -2.7611942 1.9900498
2.5124378 -2.7611942 2.0398011
2.5124378 -2.7611942 2.0895522
2.5124378 -2.7611942 2.1393034
2.5124378 -2.7611942 2.1890547
2.5124378 -2.7611942 2.238806
2.5124378 -2.7611942 2.2885573
2.5124378 -2.7611942 2.3383086
2.5124378 -2.7611942 2.3880596
2.5124378 -2.7611942 2.4378109
2.5124378 -2.7611942 2.4875622
2.5124378 -2.8109455 0
2.5124378 -2.8109455 0.049751244
2.5124378 -2.8109455 0.099502489
2.5124378 -2.8109455 0.14925373
2.5124378 -2.8109455 0.19900498
2.5124378 -2.8109455 0.24875623
2.5124378 -2.8109455 0.29850745
2.5124378 -2.8109455 0.3482587
2.5124378 -2.8109455 0.39800996
2.5124378 -2.8109455 0.44776121
2.5124378 -2.8109455 0.49751246
2.5124378 -2.8109455 0.54726368
2.5124378 -2.8109455 0.5970149
2.5124378 -2.8109455 0.64676619
2.5124378 -2.8109455 0.69651741
2.5124378 -2.8109455 0.74626869
2.5124378 -2.8109455 0.79601991
2.5124378 -2.8109455 0.84577113
2.5124378 -2.8109455 0.89552242
2.5124378 -2.8109455 0.94527364
2.5124378 -2.8109455 0.99502492
2.5124378 -2.8109455 1.0447761
2.5124378 -2.8109455 1.0945274
2.5124378 -2.8109455 1.1442786
2.5124378 -2.8109455 1.1940298
2.5124378 -2.8109455 1.2437811
2.5124378 -2.8109455 1.2935324
2.5124378 -2.8109455 1.3432837
2.5124378 -2.8109455 1.3930348
2.5124378 -2.8109455 1.4427861
2.5124378 -2.8109455 1.4925374
2.5124378 -2.8109455 1.5422885
2.5124378 -2.8109455 1.5920398
2.5124378 -2.8109455 1.6417911
2.5124378 -2.8109455 1.6915423
2.5124378 -2.8109455 1.7412935
2.5124378 -2.8109455 1.7910448
2.5124378 -2.8109455 1.840796
2.5124378 -2.8109455 1.8905473
2.5124378 -2.8109455 1.9402986
2.5124378 -2.8109455 1.9900498
2.5124378 -2.8109455 2.0398011
2.5124378 -2.8109455 2.0895522
2.5124378 -2.8109455 2.1393034
2.5124378 -2.8109455 2.1890547
2.5124378 -2.8109455 2.238806
2.5124378 -2.8109455 2.2885573
2.5124378 -2.8109455 2.3383086
2.5124378 -2.8109455 2.3880596
2.5124378 -2.8109455 2.4378109
2.5124378 -2.8109455 2.4875622
2.5124378 -2.8606968 0
2.5124378 -2.8606968 0.049751244
2.5124378 -2.8606968 0.099502489
2.5124378 -2.8606968 0.14925373
2.5124378 -2.8606968 0.19900498
2.5124378 -2.8606968 0.24875623
2.5124378 -2.8606968 0.29850745
2.5124378 -2.8606968 0.3482587
2.5124378 -2.8606968 0.39800996
2.5124378 -2.8606968 0.44776121
2.5124378 -2.8606968 0.49751246
2.5124378 -2.8606968 0.54726368
2.5124378 -2.8606968 0.5970149
2.5124378 -2.8606968 0.64676619
2.5124378 -2.8606968 0.69651741
2.5124378 -2.8606968 0.74626869
2.5124378 -2.8606968 0.79601991
2.5124378 -2.8606968 0.84577113
2.5124378 -2.8606968 0.89552242
2.5124378 -2.8606968 0.94527364
2.5124378 -2.8606968 0.99502492
2.5124378 -2.8606968 1.0447761
2.5124378 -2.8606968 1.0945274
2.5124378 -2.8606968 1.1442786
2.5124378 -2.8606968 1.1940298
2.5124378 -2.8606968 1.2437811
2.5124378 -2.8606968 1.2935324
2.5124378 -2.8606968 1.3432837
2.5124378 -2.8606968 1.3930348
2.5124378 -2.8606968 1.4427861
2.5124378 -2.8606968 1.4925374
2.5124378 -2.8606968 1.5422885
2.5124378 -2.8606968 1.5920398
2.5124378 -2.8606968 1.6417911
2.5124378 -2.8606968 1.6915423
2.5124378 -2.8606968 1.7412935
2.5124378 -2.8606968 1.7910448
2.5124378 -2.8606968 1.840796
2.5124378 -2.8606968 1.8905473
2.5124378 -2.8606968 1.9402986
2.5124378 -2.8606968 1.9900498
2.5124378 -2.8606968 2.0398011
2.5124378 -2.8606968 2.0895522
2.5124378 -2.8606968 2.1393034
2.5124378 -2.8606968 2.1890547
2.5124378 -2.8606968 2.238806
2.5124378 -2.8606968 2.2885573
2.5124378 -2.8606968 2.3383086
2.5124378 -2.8606968 2.3880596
2.5124378 -2.8606968 2.4378109
2.5124378 -2.8606968 2.4875622
2.5124378 -2.9104481 0
2.5124378 -2.9104481 0.049751244
2.5124378 -2.9104481 0.099502489
2.5124378 -2.9104481 0.14925373
2.5124378 -2.9104481 0.19900498
2.5124378 -2.9104481 0.24875623
2.5124378 -2.9104481 0.29850745
2.5124378 -2.9104481 0.3482587
2.5124378 -2.9104481 0.39800996
2.5124378 -2.9104481 0.44776121
2.5124378 -2.9104481 0.49751246
2.5124378 -2.9104481 0.54726368
2.5124378 -2.9104481 0.5970149
2.5124378 -2.9104481 0.64676619
2.5124378 -2.9104481 0.69651741
2.5124378 -2.9104481 0.74626869
2.5124378 -2.9104481 0.79601991
2.5124378 -2.9104481 0.84577113
2.5124378 -2.9104481 0.89552242
2.5124378 -2.9104481 0.94527364
2.5124378 -2.9104481 0.99502492
2.5124378 -2.9104481 1.0447761
2.5124378 -2.9104481 1.0945274
2.5124378 -2.9104481 1.1442786
2.5124378 -2.9104481 1.1940298
2.5124378 -2.9104481 1.2437811
2.5124378 -2.9104481 1.2935324
2.5124378 -2.9104481 1.3432837
2.5124378 -2.9104481 1.3930348
2.5124378 -2.9104481 1.4427861
2.5124378 -2.9104481 1.4925374
2.5124378 -2.9104481 1.5422885
2.5124378 -2.9104481 1.5920398
2.5124378 -2.9104481 1.6417911
2.5124378 -2.9104481 1.6915423
2.5124378 -2.9104481 1.7412935
2.5124378 -2.9104481 1.7910448
2.5124378 -2.9104481 1.840796
2.5124378 -2.9104481 1.8905473
2.5124378 -2.9104481 1.9402986
2.5124378 -2.9104481 1.9900498
2.5124378 -2.9104481 2.0398011
2.5124378 -2.9104481 2.0895522
2.5124378 -2.9104481 2.1393034
2.5124378 -2.9104481 2.1890547
2.5124378 -2.9104481 2.238806
2.5124378 -2.9104481 2.2885573
2.5124378 -2.9104481 2.3383086
2.5124378 -2.9104481 2.3880596
2.5124378 -2.9104481 2.4378109
2.5124378 -2.9104481 2.4875622
2.5124378 -2.9601994 0
2.5124378 -2.9601994 0.049751244
2.5124378 -2.9601994 0.099502489
2.5124378 -2.9601994 0.14925373
2.5124378 -2.9601994 0.19900498
2.5124378 -2.9601994 0.24875623
2.5124378 -2.9601994 0.29850745
2.5124378 -2.9601994 0.3482587
2.5124378 -2.9601994 0.39800996
2.5124378 -2.9601994 0.44776121
2.5124378 -2.9601994 0.49751246
2.5124378 -2.9601994 0.54726368
2.5124378 -2.9601994 0.5970149
2.5124378 -2.9601994 0.64676619
2.5124378 -2.9601994 0.69651741
2.5124378 -2.9601994 0.74626869
2.5124378 -2.9601994 0.79601991
2.5124378 -2.9601994 0.84577113
2.5124378 -2.9601994 0.89552242
2.5124378 -2.9601994 0.94527364
2.5124378 -2.9601994 0.99502492
2.5124378 -2.9601994 1.0447761
2.5124378 -2.9601994 1.0945274
2.5124378 -2.9601994 1.1442786
2.5124378 -2.9601994 1.1940298
2.5124378 -2.9601994 1.2437811
2.5124378 -2.9601994 1.2935324
2.5124378 -2.9601994 1.3432837
2.5124378 -2.9601994 1.3930348
2.5124378 -2.9601994 1.4427861
2.5124378 -2.9601994 1.4925374
2.5124378 -2.9601994 1.5422885
2.5124378 -2.9601994 1.5920398
2.5124378 -2.9601994 1.6417911
2.5124378 -2.9601994 1.6915423
2.5124378 -2.9601994 1.7412935
2.5124378 -2.9601994 1.7910448
2.5124378 -2.9601994 1.840796
2.5124378 -2.9601994 1.8905473
2.5124378 -2.9601994 1.9402986
2.5124378 -2.9601994 1.9900498
2.5124378 -2.9601994 2.0398011
2.5124378 -2.9601994 2.0895522
2.5124378 -2.9601994 2.1393034
2.5124378 -2.9601994 2.1890547
2.5124378 -2.9601994 2.238806
2.5124378 -2.9601994 2.2885573
2.5124378 -2.9601994 2.3383086
2.5124378 -2.9601994 2.3880596
2.5124378 -2.9601994 2.4378109
2.5124378 -2.9601994 2.4875622
2.5124378 -3.0099506 0
2.5124378 -3.0099506 0.049751244
2.5124378 -3.0099506 0.099502489
2.5124378 -3.0099506 0.14925373
2.5124378 -3.0099506 0.19900498
2.5124378 -3.0099506 0.24875623
2.5124378 -3.0099506 0.29850745
2.5124378 -3.0099506 0.3482587
2.5124378 -3.0099506 0.39800996
2.5124378 -3.0099506 0.44776121
2.5124378 -3.0099506 0.49751246
2.5124378 -3.0099506 0.54726368
2.5124378 -3.0099506 0.5970149
2.5124378 -3.0099506 0.64676619
2.5124378 -3.0099506 0.69651741
2.5124378 -3.0099506 0.74626869
2.5124378 -3.0099506 0.79601991
2.5124378 -3.0099506 0.84577113
2.5124378 -3.0099506 0.89552242
2.5124378 -3.0099506 0.94527364
2.5124378 -3.0099506 0.99502492
2.5124378 -3.0099506 1.0447761
2.5124378 -3.0099506 1.0945274
2.5124378 -3.0099506 1.1442786
2.5124378 -3.0099506 1.1940298
2.5124378 -3.0099506 1.2437811
2.5124378 -3.0099506 1.2935324
2.5124378 -3.0099506 1.3432837
2.5124378 -3.0099506 1.3930348
2.5124378 -3.0099506 1.4427861
2.5124378 -3.0099506 1.4925374
2.5124378 -3.0099506 1.5422885
2.5124378 -3.0099506 1.5920398
2.5124378 -3.0099506 1.6417911
2.5124378 -3.0099506 1.6915423
2.5124378 -3.0099506 1.7412935
2.5124378 -3.0099506 1.7910448
2.5124378 -3.0099506 1.840796
2.5124378 -3.0099506 1.8905473
2.5124378 -3.0099506 1.9402986
2.5124378 -3.0099506 1.9900498
2.5124378 -3.0099506 2.0398011
2.5124378 -3.0099506 2.0895522
2.5124378 -3.0099506 2.1393034
2.5124378 -3.0099506 2.1890547
2.5124378 -3.0099506 2.238806
2.5124378 -3.0099506 2.2885573
2.5124378 -3.0099506 2.3383086
2.5124378 -3.0099506 2.3880596
2.5124378 -3.0099506 2.4378109
2.5124378 -3.0099506 2.4875622
2.5124378 -3.0597019 0
2.5124378 -3.0597019 0.049751244
2.5124378 -3.0597019 0.099502489
2.5124378 -3.0597019 0.14925373
2.5124378 -3.0597019 0.19900498
2.5124378 -3.0597019 0.24875623
2.5124378 -3.0597019 0.29850745
2.5124378 -3.0597019 0.3482587
2.5124378 -3.0597019 0.39800996
2.5124378 -3.0597019 0.44776121
2.5124378 -3.0597019 0.49751246
2.5124378 -3.0597019 0.54726368
2.5124378 -3.0597019 0.5970149
2.5124378 -3.0597019 0.64676619
2.5124378 -3.0597019 0.69651741
2.5124378 -3.0597019 0.74626869
2.5124378 -3.0597019 0.79601991
2.5124378 -3.0597019 0.84577113
2.5124378 -3.0597019 0.89552242
2.5124378 -3.0597019 0.94527364
2.5124378 -3.0597019 0.99502492
2.5124378 -3.0597019 1.0447761
2.5124378 -3.0597019 1.0945274
2.5124378 -3.0597019 1.1442786
2.5124378 -3.0597019 1.1940298
2.5124378 -3.0597019 1.2437811
2.5124378 -3.0597019 1.2935324
2.5124378 -3.0597019 1.3432837
2.5124378 -3.0597019 1.3930348
2.5124378 -3.0597019 1.4427861
2.5124378 -3.0597019 1.4925374
2.5124378 -3.0597019 1.5422885
2.5124378 -3.0597019 1.5920398
2.5124378 -3.0597019 1.6417911
2.5124378 -3.0597019 1.6915423
2.5124378 -3.0597019 1.7412935
2.5124378 -3.0597019 1.7910448
2.5124378 -3.0597019 1.840796
2.5124378 -3.0597019 1.8905473
2.5124378 -3.0597019 1.9402986
2.5124378 -3.0597019 1.9900498
2.5124378 -3.0597019 2.0398011
2.5124378 -3.0597019 2.0895522
2.5124378 -3.0597019 2.1393034
2.5124378 -3.0597019 2.1890547
2.5124378 -3.0597019 2.238806
2.5124378 -3.0597019 2.2885573
2.5124378 -3.0597019 2.3383086
2.5124378 -3.0597019 2.3880596
2.5124378 -3.0597019 2.4378109
2.5124378 -3.0597019 2.4875622
2.5124378 -3.1094532 0
2.5124378 -3.1094532 0.049751244
2.5124378 -3.1094532 0.099502489
2.5124378 -3.1094532 0.14925373
2.5124378 -3.1094532 0.19900498
2.5124378 -3.1094532 0.24875623
2.5124378 -3.1094532 0.29850745
2.5124378 -3.1094532 0.3482587
2.5124378 -3.1094532 0.39800996
2.5124378 -3.1094532 0.44776121
2.5124378 -3.1094532 0.49751246
2.5124378 -3.1094532 0.54726368
2.5124378 -3.1094532 0.5970149
2.5124378 -3.1094532 0.64676619
2.5124378 -3.1094532 0.69651741
2.5124378 -3.1094532 0.74626869
2.5124378 -3.1094532 0.79601991
2.5124378 -3.1094532 0.84577113
2.5124378 -3.1094532 0.89552242
2.5124378 -3.1094532 0.94527364
2.5124378 -3.1094532 0.99502492
2.5124378 -3.1094532 1.0447761
2.5124378 -3.1094532 1.0945274
2.5124378 -3.1094532 1.1442786
2.5124378 -3.1094532 1.1940298
2.5124378 -3.1094532 1.2437811
2.5124378 -3.1094532 1.2935324
2.5124378 -3.1094532 1.3432837
2.5124378 -3.1094532 1.3930348
2.5124378 -3.1094532 1.4427861
2.5124378 -3.1094532 1.4925374
2.5124378 -3.1094532 1.5422885
2.5124378 -3.1094532 1.5920398
2.5124378 -3.1094532 1.6417911
2.5124378 -3.1094532 1.6915423
2.5124378 -3.1094532 1.7412935
2.5124378 -3.1094532 1.7910448
2.5124378 -3.1094532 1.840796
2.5124378 -3.1094532 1.8905473
2.5124378 -3.1094532 1.9402986
2.5124378 -3.1094532 1.9900498
2.5124378 -3.1094532 2.0398011
2.5124378 -3.1094532 2.0895522
2.5124378 -3.1094532 2.1393034
2.5124378 -3.1094532 2.1890547
2.5124378 -3.1094532 2.238806
2.5124378 -3.1094532 2.2885573
2.5124378 -3.1094532 2.3383086
2.5124378 -3.1094532 2.3880596
2.5124378 -3.1094532 2.4378109
2.5124378 -3.1094532 2.4875622
2.5124378 -3.1592045 0
2.5124378 -3.1592045 0.049751244
2.5124378 -3.1592045 0.099502489
2.5124378 -3.1592045 0.14925373
2.5124378 -3.1592045 0.19900498
2.5124378 -3.1592045 0.24875623
2.5124378 -3.1592045 0.29850745
2.5124378 -3.1592045 0.3482587
2.5124378 -3.1592045 0.39800996
2.5124378 -3.1592045 0.44776121
2.5124378 -3.1592045 0.49751246
2.5124378 -3.1592045 0.54726368
2.5124378 -3.1592045 0.5970149
2.5124378 -3.1592045 0.64676619
2.5124378 -3.1592045 0.69651741
2.5124378 -3.1592045 0.74626869
2.5124378 -3.1592045 0.79601991
2.5124378 -3.1592045 0.84577113
2.5124378 -3.1592045 0.89552242
2.5124378 -3.1592045 0.94527364
2.5124378 -3.1592045 0.99502492
2.5124378 -3.1592045 1.0447761
2.5124378 -3.1592045 1.0945274
2.5124378 -3.1592045 1.1442786
2.5124378 -3.1592045 1.1940298
2.5124378 -3.1592045 1.2437811
2.5124378 -3.1592045 1.2935324
2.5124378 -3.1592045 1.3432837
2.5124378 -3.1592045 1.3930348
2.5124378 -3.1592045 1.4427861
2.5124378 -3.1592045 1.4925374
2.5124378 -3.1592045 1.5422885
2.5124378 -3.1592045 1.5920398
2.5124378 -3.1592045 1.6417911
2.5124378 -3.1592045 1.6915423
2.5124378 -3.1592045 1.7412935
2.5124378 -3.1592045 1.7910448
2.5124378 -3.1592045 1.840796
2.5124378 -3.1592045 1.8905473
2.5124378 -3.1592045 1.9402986
2.5124378 -3.1592045 1.9900498
2.5124378 -3.1592045 2.0398011
2.5124378 -3.1592045 2.0895522
2.5124378 -3.1592045 2.1393034
2.5124378 -3.1592045 2.1890547
2.5124378 -3.1592045 2.238806
2.5124378 -3.1592045 2.2885573
2.5124378 -3.1592045 2.3383086
2.5124378 -3.1592045 2.3880596
2.5124378 -3.1592045 2.4378109
2.5124378 -3.1592045 2.4875622
2.5124378 -3.2089558 0
2.5124378 -3.2089558 0.049751244
2.5124378 -3.2089558 0.099502489
2.5124378 -3.2089558 0.14925373
2.5124378 -3.2089558 0.19900498
2.5124378 -3.2089558 0.24875623
2.5124378 -3.2089558 0.29850745
2.5124378 -3.2089558 0.3482587
2.5124378 -3.2089558 0.39800996
2.5124378 -3.2089558 0.44776121
2.5124378 -3.2089558 0.49751246
2.5124378 -3.2089558 0.54726368
2.5124378 -3.2089558 0.5970149
2.5124378 -3.2089558 0.64676619
2.5124378 -3.2089558 0.69651741
2.5124378 -3.2089558 0.74626869
2.5124378 -3.2089558 0.79601991
2.5124378 -3.2089558 0.84577113
2.5124378 -3.2089558 0.89552242
2.5124378 -3.2089558 0.94527364
2.5124378 -3.2089558 0.99502492
2.5124378 -3.2089558 1.0447761
2.5124378 -3.2089558 1.0945274
2.5124378 -3.2089558 1.1442786
2.5124378 -3.2089558 1.1940298
2.5124378 -3.2089558 1.2437811
2.5124378 -3.2089558 1.2935324
2.5124378 -3.2089558 1.3432837
2.5124378 -3.2089558 1.3930348
2.5124378 -3.2089558 1.4427861
2.5124378 -3.2089558 1.4925374
2.5124378 -3.2089558 1.5422885
2.5124378 -3.2089558 1.5920398
2.5124378 -3.2089558 1.6417911
2.5124378 -3.2089558 1.6915423
2.5124378 -3.2089558 1.7412935
2.5124378 -3.2089558 1.7910448
2.5124378 -3.2089558 1.840796
2.5124378 -3.2089558 1.8905473
2.5124378 -3.2089558 1.9402986
2.5124378 -3.2089558 1.9900498
2.5124378 -3.2089558 2.0398011
2.5124378 -3.2089558 2.0895522
2.5124378 -3.2089558 2.1393034
2.5124378 -3.2089558 2.1890547
2.5124378 -3.2089558 2.238806
2.5124378 -3.2089558 2.2885573
2.5124378 -3.2089558 2.3383086
2.5124378 -3.2089558 2.3880596
2.5124378 -3.2089558 2.4378109
2.5124378 -3.2089558 2.4875622
2.5124378 -3.258707 0
2.5124378 -3.258707 0.049751244
2.5124378 -3.258707 0.099502489
2.5124378 -3.258707 0.14925373
2.5124378 -3.258707 0.19900498
2.5124378 -3.258707 0.24875623
2.5124378 -3.258707 0.29850745
2.5124378 -3.258707 0.3482587
2.5124378 -3.258707 0.39800996
2.5124378 -3.258707 0.44776121
2.5124378 -3.258707 0.49751246
2.5124378 -3.258707 0.54726368
2.5124378 -3.258707 0.5970149
2.5124378 -3.258707 0.64676619
2.5124378 -3.258707 0.69651741
2.5124378 -3.258707 0.74626869
2.5124378 -3.258707 0.79601991
2.5124378 -3.258707 0.84577113
2.5124378 -3.258707 0.89552242
2.5124378 -3.258707 0.94527364
2.5124378 -3.258707 0.99502492
2.5124378 -3.258707 1.0447761
2.5124378 -3.258707 1.0945274
2.5124378 -3.258707 1.1442786
2.5124378 -3.258707 1.1940298
2.5124378 -3.258707 1.2437811
2.5124378 -3.258707 1.2935324
2.5124378 -3.258707 1.3432837
2.5124378 -3.258707 1.3930348
2.5124378 -3.258707 1.4427861
2.5124378 -3.258707 1.4925374
2.5124378 -3.258707 1.5422885
2.5124378 -3.258707 1.5920398
2.5124378 -3.258707 1.6417911
2.5124378 -3.258707 1.6915423
2.5124378 -3.258707 1.7412935
2.5124378 -3.258707 1.7910448
2.5124378 -3.258707 1.840796
2.5124378 -3.258707 1.8905473
2.5124378 -3.258707 1.9402986
2.5124378 -3.258707 1.9900498
2.5124378 -3.258707 2.0398011
2.5124378 -3.258707 2.0895522
2.5124378 -3.258707 2.1393034
2.5124378 -3.258707 2.1890547
2.5124378 -3.258707 2.238806
2.5124378 -3.258707 2.2885573
2.5124378 -3.258707 2.3383086
2.5124378 -3.258707 2.3880596
2.5124378 -3.258707 2.4378109
2.5124378 -3.258707 2.4875622
2.5124378 -3.3084574 0
2.5124378 -3.3084574 0.049751244
2.5124378 -3.3084574 0.099502489
2.5124378 -3.3084574 0.14925373
2.5124378 -3.3084574 0.19900498
2.5124378 -3.3084574 0.24875623
2.5124378 -3.3084574 0.29850745
2.5124378 -3.3084574 0.3482587
2.5124378 -3.3084574 0.39800996
2.5124378 -3.3084574 0.44776121
2.5124378 -3.3084574 0.49751246
2.5124378 -3.3084574 0.54726368
2.5124378 -3.3084574 0.5970149
2.5124378 -3.3084574 0.64676619
2.5124378 -3.3084574 0.69651741
2.5124378 -3.3084574 0.74626869
2.5124378 -3.3084574 0.79601991
2.5124378 -3.3084574 0.84577113
2.5124378 -3.3084574 0.89552242
2.5124378 -3.3084574 0.94527364
2.5124378 -3.3084574 0.99502492
2.5124378 -3.3084574 1.0447761
2.5124378 -3.3084574 1.0945274
2.5124378 -3.3084574 1.1442786
2.5124378 -3.3084574 1.1940298
2.5124378 -3.3084574 1.2437811
2.5124378 -3.3084574 1.2935324
2.5124378 -3.3084574 1.3432837
2.5124378 -3.3084574 1.3930348
2.5124378 -3.3084574 1.4427861
2.5124378 -3.3084574 1.4925374
2.5124378 -3.3084574 1.5422885
2.5124378 -3.3084574 1.5920398
2.5124378 -3.3084574 1.6417911
2.5124378 -3.3084574 1.6915423
2.5124378 -3.3084574 1.7412935
2.5124378 -3.3084574 1.7910448
2.5124378 -3.3084574 1.840796
2.5124378 -3.3084574 1.8905473
2.5124378 -3.3084574 1.9402986
2.5124378 -3.3084574 1.9900498
2.5124378 -3.3084574 2.0398011
2.5124378 -3.3084574 2.0895522
2.5124378 -3.3084574 2.1393034
2.5124378 -3.3084574 2.1890547
2.5124378 -3.3084574 2.238806
2.5124378 -3.3084574 2.2885573
2.5124378 -3.3084574 2.3383086
2.5124378 -3.3084574 2.3880596
2.5124378 -3.3084574 2.4378109
2.5124378 -3.3084574 2.4875622
2.5124378 -3.3582087 0
2.5124378 -3.3582087 0.049751244
2.5124378 -3.3582087 0.099502489
2.5124378 -3.3582087 0.14925373
2.5124378 -3.3582087 0.19900498
2.5124378 -3.3582087 0.24875623
2.5124378 -3.3582087 0.29850745
2.5124378 -3.3582087 0.3482587
2.5124378 -3.3582087 0.39800996
2.5124378 -3.3582087 0.44776121
2.5124378 -3.3582087 0.49751246
2.5124378 -3.3582087 0.54726368
2.5124378 -3.3582087 0.5970149
2.5124378 -3.3582087 0.64676619
2.5124378 -3.3582087 0.69651741
2.5124378 -3.3582087 0.74626869
2.5124378 -3.3582087 0.79601991
2.5124378 -3.3582087 0.84577113
2.5124378 -3.3582087 0.89552242
2.5124378 -3.3582087 0.94527364
2.5124378 -3.3582087 0.99502492
2.5124378 -3.3582087 1.0447761
2.5124378 -3.3582087 1.0945274
2.5124378 -3.3582087 1.1442786
2.5124378 -3.3582087 1.1940298
2.5124378 -3.3582087 1.2437811
2.5124378 -3.3582087 1.2935324
2.5124378 -3.3582087 1.3432837
2.5124378 -3.3582087 1.3930348
2.5124378 -3.3582087 1.4427861
2.5124378 -3.3582087 1.4925374
2.5124378 -3.3582087 1.5422885
2.5124378 -3.3582087 1.5920398
2.5124378 -3.3582087 1.6417911
2.5124378 -3.3582087 1.6915423
2.5124378 -3.3582087 1.7412935
2.5124378 -3.3582087 1.7910448
2.5124378 -3.3582087 1.840796
2.5124378 -3.3582087 1.8905473
2.5124378 -3.3582087 1.9402986
2.5124378 -3.3582087 1.9900498
2.5124378 -3.3582087 2.0398011
2.5124378 -3.3582087 2.0895522
2.5124378 -3.3582087 2.1393034
2.5124378 -3.3582087 2.1890547
2.5124378 -3.3582087 2.238806
2.5124378 -3.3582087 2.2885573
2.5124378 -3.3582087 2.3383086
2.5124378 -3.3582087 2.3880596
2.5124378 -3.3582087 2.4378109
2.5124378 -3.3582087 2.4875622
2.5124378 -3.4079599 0
2.5124378 -3.4079599 0.049751244
2.5124378 -3.4079599 0.099502489
2.5124378 -3.4079599 0.14925373
2.5124378 -3.4079599 0.19900498
2.5124378 -3.4079599 0.24875623
2.5124378 -3.4079599 0.29850745
2.5124378 -3.4079599 0.3482587
2.5124378 -3.4079599 0.39800996
2.5124378 -3.4079599 0.44776121
2.5124378 -3.4079599 0.49751246
2.5124378 -3.4079599 0.54726368
2.5124378 -3.4079599 0.5970149
2.5124378 -3.4079599 0.64676619
2.5124378 -3.4079599 0.69651741
2.5124378 -3.4079599 0.74626869
2.5124378 -3.4079599 0.79601991
2.5124378 -3.4079599 0.84577113
2.5124378 -3.4079599 0.89552242
2.5124378 -3.4079599 0.94527364
2.5124378 -3.4079599 0.99502492
2.5124378 -3.4079599 1.0447761
2.5124378 -3.4079599 1.0945274
2.5124378 -3.4079599 1.1442786
2.5124378 -3.4079599 1.1940298
2.5124378 -3.4079599 1.2437811
2.5124378 -3.4079599 1.2935324
2.5124378 -3.4079599 1.3432837
2.5124378 -3.4079599 1.3930348
2.5124378 -3.4079599 1.4427861
2.5124378 -3.4079599 1.4925374
2.5124378 -3.4079599 1.5422885
2.5124378 -3.4079599 1.5920398
2.5124378 -3.4079599 1.6417911
2.5124378 -3.4079599 1.6915423
2.5124378 -3.4079599 1.7412935
2.5124378 -3.4079599 1.7910448
2.5124378 -3.4079599 1.840796
2.5124378 -3.4079599 1.8905473
2.5124378 -3.4079599 1.9402986
2.5124378 -3.4079599 1.9900498
2.5124378 -3.4079599 2.0398011
2.5124378 -3.4079599 2.0895522
2.5124378 -3.4079599 2.1393034
2.5124378 -3.4079599 2.1890547
2.5124378 -3.4079599 2.238806
2.5124378 -3.4079599 2.2885573
2.5124378 -3.4079599 2.3383086
2.5124378 -3.4079599 2.3880596
2.5124378 -3.4079599 2.4378109
2.5124378 -3.4079599 2.4875622
2.5124378 -3.4577112 0
2.5124378 -3.4577112 0.049751244
2.5124378 -3.4577112 0.099502489
2.5124378 -3.4577112 0.14925373
2.5124378 -3.4577112 0.19900498
2.5124378 -3.4577112 0.24875623
2.5124378 -3.4577112 0.29850745
2.5124378 -3.4577112 0.3482587
2.5124378 -3.4577112 0.39800996
2.5124378 -3.4577112 0.44776121
2.5124378 -3.4577112 0.49751246
2.5124378 -3.4577112 0.54726368
2.5124378 -3.4577112 0.5970149
2.5124378 -3.4577112 0.64676619
2.5124378 -3.4577112 0.69651741
2.5124378 -3.4577112 0.74626869
2.5124378 -3.4577112 0.79601991
2.5124378 -3.4577112 0.84577113
2.5124378 -3.4577112 0.89552242
2.5124378 -3.4577112 0.94527364
2.5124378 -3.4577112 0.99502492
2.5124378 -3.4577112 1.0447761
2.5124378 -3.4577112 1.0945274
2.5124378 -3.4577112 1.1442786
2.5124378 -3.4577112 1.1940298
2.5124378 -3.4577112 1.2437811
2.5124378 -3.4577112 1.2935324
2.5124378 -3.4577112 1.3432837
2.5124378 -3.4577112 1.3930348
2.5124378 -3.4577112 1.4427861
2.5124378 -3.4577112 1.4925374
2.5124378 -3.4577112 1.5422885
2.5124378 -3.4577112 1.5920398
2.5124378 -3.4577112 1.6417911
2.5124378 -3.4577112 1.6915423
2.5124378 -3.4577112 1.7412935
2.5124378 -3.4577112 1.7910448
2.5124378 -3.4577112 1.840796
2.5124378 -3.4577112 1.8905473
2.5124378 -3.4577112 1.9402986
2.5124378 -3.4577112 1.9900498
2.5124378 -3.4577112 2.0398011
2.5124378 -3.4577112 2.0895522
2.5124378 -3.4577112 2.1393034
2.5124378 -3.4577112 2.1890547
2.5124378 -3.4577112 2.238806
2.5124378 -3.4577112 2.2885573
2.5124378 -3.4577112 2.3383086
2.5124378 -3.4577112 2.3880596
2.5124378 -3.4577112 2.4378109
2.5124378 -3.4577112 2.4875622
2.5124378 -3.5074625 0
2.5124378 -3.5074625 0.049751244
2.5124378 -3.5074625 0.099502489
2.5124378 -3.5074625 0.14925373
2.5124378 -3.5074625 0.19900498
2.5124378 -3.5074625 0.24875623
2.5124378 -3.5074625 0.29850745
2.5124378 -3.5074625 0.3482587
2.5124378 -3.5074625 0.39800996
2.5124378 -3.5074625 0.44776121
2.5124378 -3.5074625 0.49751246
2.5124378 -3.5074625 0.54726368
2.5124378 -3.5074625 0.5970149
2.5124378 -3.5074625 0.64676619
2.5124378 -3.5074625 0.69651741
2.5124378 -3.5074625 0.74626869
2.5124378 -3.5074625 0.79601991
2.5124378 -3.5074625 0.84577113
2.5124378 -3.5074625 0.89552242
2.5124378 -3.5074625 0.94527364
2.5124378 -3.5074625 0.99502492
2.5124378 -3.5074625 1.0447761
2.5124378 -3.5074625 1.0945274
2.5124378 -3.5074625 1.1442786
2.5124378 -3.5074625 1.1940298
2.5124378 -3.5074625 1.2437811
2.5124378 -3.5074625 1.2935324
2.5124378 -3.5074625 1.3432837
2.5124378 -3.5074625 1.3930348
2.5124378 -3.5074625 1.4427861
2.5124378 -3.5074625 1.4925374
2.5124378 -3.5074625 1.5422885
2.5124378 -3.5074625 1.5920398
2.5124378 -3.5074625 1.6417911
2.5124378 -3.5074625 1.6915423
2.5124378 -3.5074625 1.7412935
2.5124378 -3.5074625 1.7910448
2.5124378 -3.5074625 1.840796
2.5124378 -3.5074625 1.8905473
2.5124378 -3.5074625 1.9402986
2.5124378 -3.5074625 1.9900498
2.5124378 -3.5074625 2.0398011
2.5124378 -3.5074625 2.0895522
2.5124378 -3.5074625 2.1393034
2.5124378 -3.5074625 2.1890547
2.5124378 -3.5074625 2.238806
2.5124378 -3.5074625 2.2885573
2.5124378 -3.5074625 2.3383086
2.5124378 -3.5074625 2.3880596
2.5124378 -3.5074625 2.4378109
2.5124378 -3.5074625 2.4875622
2.5124378 -3.5572138 0
2.5124378 -3.5572138 0.049751244
2.5124378 -3.5572138 0.099502489
2.5124378 -3.5572138 0.14925373
2.5124378 -3.5572138 0.19900498
2.5124378 -3.5572138 0.24875623
2.5124378 -3.5572138 0.29850745
2.5124378 -3.5572138 0.3482587
2.5124378 -3.5572138 0.39800996
2.5124378 -3.5572138 0.44776121
2.5124378 -3.5572138 0.49751246
2.5124378 -3.5572138 0.54726368
2.5124378 -3.5572138 0.5970149
2.5124378 -3.5572138 0.64676619
2.5124378 -3.5572138 0.69651741
2.5124378 -3.5572138 0.74626869
2.5124378 -3.5572138 0.79601991
2.5124378 -3.5572138 0.84577113
2.5124378 -3.5572138 0.89552242
2.5124378 -3.5572138 0.94527364
2.5124378 -3.5572138 0.99502492
2.5124378 -3.5572138 1.0447761
2.5124378 -3.5572138 1.0945274
2.5124378 -3.5572138 1.1442786
2.5124378 -3.5572138 1.1940298
2.5124378 -3.5572138 1.2437811
2.5124378 -3.5572138 1.2935324
2.5124378 -3.5572138 1.3432837
2.5124378 -3.5572138 1.3930348
2.5124378 -3.5572138 1.4427861
2.5124378 -3.5572138 1.4925374
2.5124378 -3.5572138 1.5422885
2.5124378 -3.5572138 1.5920398
2.5124378 -3.5572138 1.6417911
2.5124378 -3.5572138 1.6915423
2.5124378 -3.5572138 1.7412935
2.5124378 -3.5572138 1.7910448
2.5124378 -3.5572138 1.840796
2.5124378 -3.5572138 1.8905473
2.5124378 -3.5572138 1.9402986
2.5124378 -3.5572138 1.9900498
2.5124378 -3.5572138 2.0398011
2.5124378 -3.5572138 2.0895522
2.5124378 -3.5572138 2.1393034
2.5124378 -3.5572138 2.1890547
2.5124378 -3.5572138 2.238806
2.5124378 -3.5572138 2.2885573
2.5124378 -3.5572138 2.3383086
2.5124378 -3.5572138 2.3880596
2.5124378 -3.5572138 2.4378109
2.5124378 -3.5572138 2.4875622
2.5124378 -3.6069651 0
2.5124378 -3.6069651 0.049751244
2.5124378 -3.6069651 0.099502489
2.5124378 -3.6069651 0.14925373
2.5124378 -3.6069651 0.19900498
2.5124378 -3.6069651 0.24875623
2.5124378 -3.6069651 0.29850745
2.5124378 -3.6069651 0.3482587
2.5124378 -3.6069651 0.39800996
